ply
format ascii 1.0
comment Original LiDAR: USGS National Dataset
comment Cropped and converted to PLY by CloudCompare v2.11 alpha (Anoia)
comment Converted from original position to centered position by Chris Calef.
element vertex 2775
property float x
property float y
property float z
end_header
351.0 2.2 -159.0
354.0 3.84 -159.0
357.0 11.06 -159.0
360.0 26.25 -159.0
363.0 27.69 -159.0
366.0 27.72 -159.0
369.0 28.71 -159.0
252.0 2.49 -156.0
255.0 2.46 -156.0
282.0 2.1 -156.0
294.0 26.64 -156.0
297.0 29.03 -156.0
300.0 32.81 -156.0
303.0 36.02 -156.0
306.0 35.5 -156.0
309.0 35.33 -156.0
312.0 32.09 -156.0
315.0 33.27 -156.0
318.0 26.25 -156.0
321.0 26.54 -156.0
324.0 19.78 -156.0
327.0 15.52 -156.0
330.0 17.68 -156.0
333.0 9.91 -156.0
336.0 1.97 -156.0
339.0 5.25 -156.0
342.0 3.94 -156.0
345.0 2.1 -156.0
348.0 2.0 -156.0
351.0 2.59 -156.0
354.0 7.94 -156.0
357.0 8.89 -156.0
360.0 18.6 -156.0
363.0 21.32 -156.0
366.0 22.77 -156.0
369.0 25.56 -156.0
273.0 2.16 -153.0
276.0 2.1 -153.0
288.0 26.25 -153.0
291.0 29.66 -153.0
294.0 29.89 -153.0
297.0 34.19 -153.0
300.0 36.12 -153.0
303.0 37.37 -153.0
306.0 37.56 -153.0
309.0 35.37 -153.0
312.0 37.27 -153.0
315.0 34.84 -153.0
318.0 34.45 -153.0
321.0 26.02 -153.0
324.0 22.64 -153.0
327.0 15.65 -153.0
330.0 18.77 -153.0
333.0 16.21 -153.0
336.0 8.37 -153.0
339.0 2.92 -153.0
342.0 8.5 -153.0
345.0 2.26 -153.0
348.0 1.64 -153.0
351.0 1.7 -153.0
354.0 2.43 -153.0
357.0 6.86 -153.0
360.0 14.7 -153.0
363.0 19.85 -153.0
366.0 19.98 -153.0
369.0 15.68 -153.0
267.0 2.1 -150.0
270.0 2.13 -150.0
291.0 30.15 -150.0
294.0 32.15 -150.0
297.0 29.2 -150.0
300.0 38.75 -150.0
303.0 38.75 -150.0
306.0 37.93 -150.0
309.0 34.48 -150.0
312.0 38.78 -150.0
315.0 37.99 -150.0
318.0 35.14 -150.0
321.0 26.84 -150.0
324.0 26.41 -150.0
327.0 20.9 -150.0
330.0 23.85 -150.0
333.0 21.13 -150.0
336.0 13.09 -150.0
339.0 9.28 -150.0
342.0 3.05 -150.0
345.0 1.7 -150.0
348.0 1.21 -150.0
351.0 1.31 -150.0
354.0 1.87 -150.0
357.0 5.48 -150.0
363.0 3.15 -150.0
366.0 0.95 -150.0
225.0 2.75 -147.0
228.0 2.69 -147.0
255.0 2.1 -147.0
258.0 2.1 -147.0
261.0 2.13 -147.0
264.0 1.84 -147.0
267.0 1.74 -147.0
285.0 1.64 -147.0
288.0 21.16 -147.0
291.0 27.13 -147.0
294.0 35.37 -147.0
297.0 34.68 -147.0
300.0 37.6 -147.0
303.0 38.65 -147.0
306.0 37.24 -147.0
309.0 38.32 -147.0
312.0 36.28 -147.0
315.0 37.01 -147.0
318.0 34.05 -147.0
321.0 28.38 -147.0
324.0 20.08 -147.0
327.0 23.03 -147.0
330.0 19.85 -147.0
333.0 16.44 -147.0
336.0 11.65 -147.0
339.0 4.43 -147.0
342.0 3.38 -147.0
345.0 2.43 -147.0
348.0 1.7 -147.0
351.0 1.21 -147.0
354.0 1.51 -147.0
360.0 0.72 -147.0
216.0 2.82 -144.0
219.0 2.85 -144.0
222.0 2.82 -144.0
252.0 2.23 -144.0
261.0 1.93 -144.0
264.0 1.84 -144.0
267.0 1.57 -144.0
276.0 6.04 -144.0
279.0 6.69 -144.0
282.0 6.49 -144.0
285.0 6.63 -144.0
288.0 22.37 -144.0
291.0 29.03 -144.0
294.0 30.54 -144.0
297.0 34.61 -144.0
300.0 37.99 -144.0
303.0 38.68 -144.0
306.0 37.33 -144.0
309.0 33.66 -144.0
312.0 37.3 -144.0
315.0 35.14 -144.0
318.0 34.91 -144.0
321.0 27.95 -144.0
324.0 26.54 -144.0
327.0 25.92 -144.0
330.0 22.74 -144.0
333.0 25.16 -144.0
336.0 8.63 -144.0
339.0 7.02 -144.0
342.0 4.3 -144.0
345.0 4.23 -144.0
351.0 0.98 -144.0
357.0 1.41 -144.0
360.0 1.51 -144.0
369.0 1.84 -144.0
207.0 2.95 -141.0
210.0 2.92 -141.0
213.0 2.89 -141.0
240.0 2.3 -141.0
258.0 1.97 -141.0
264.0 1.8 -141.0
270.0 1.67 -141.0
273.0 6.95 -141.0
276.0 6.59 -141.0
279.0 6.53 -141.0
282.0 6.27 -141.0
285.0 1.54 -141.0
288.0 2.07 -141.0
291.0 13.52 -141.0
294.0 27.79 -141.0
297.0 34.81 -141.0
300.0 38.22 -141.0
303.0 37.63 -141.0
306.0 34.02 -141.0
309.0 30.87 -141.0
312.0 32.64 -141.0
315.0 30.9 -141.0
318.0 27.62 -141.0
321.0 26.77 -141.0
324.0 25.88 -141.0
327.0 24.74 -141.0
330.0 22.87 -141.0
333.0 23.46 -141.0
336.0 14.04 -141.0
339.0 4.62 -141.0
342.0 3.71 -141.0
345.0 2.95 -141.0
348.0 1.41 -141.0
351.0 2.3 -141.0
354.0 1.48 -141.0
357.0 1.41 -141.0
360.0 1.48 -141.0
363.0 1.15 -141.0
366.0 0.92 -141.0
369.0 1.74 -141.0
198.0 3.05 -138.0
201.0 2.98 -138.0
204.0 3.02 -138.0
234.0 2.36 -138.0
270.0 1.64 -138.0
273.0 6.46 -138.0
276.0 5.25 -138.0
279.0 1.61 -138.0
282.0 1.61 -138.0
285.0 1.44 -138.0
288.0 1.61 -138.0
291.0 1.7 -138.0
294.0 18.86 -138.0
297.0 26.41 -138.0
300.0 33.56 -138.0
303.0 34.38 -138.0
306.0 30.12 -138.0
309.0 29.53 -138.0
312.0 22.54 -138.0
315.0 24.97 -138.0
318.0 21.39 -138.0
321.0 20.6 -138.0
324.0 20.64 -138.0
327.0 23.13 -138.0
330.0 21.75 -138.0
333.0 21.55 -138.0
336.0 7.77 -138.0
339.0 3.54 -138.0
342.0 3.12 -138.0
345.0 1.97 -138.0
351.0 0.95 -138.0
360.0 1.11 -138.0
363.0 1.51 -138.0
366.0 2.36 -138.0
369.0 2.33 -138.0
189.0 3.08 -135.0
192.0 3.02 -135.0
228.0 2.43 -135.0
276.0 1.54 -135.0
279.0 1.57 -135.0
282.0 1.61 -135.0
285.0 1.54 -135.0
288.0 1.57 -135.0
291.0 11.51 -135.0
294.0 15.68 -135.0
297.0 16.17 -135.0
300.0 25.75 -135.0
303.0 31.89 -135.0
306.0 28.31 -135.0
309.0 21.03 -135.0
312.0 19.75 -135.0
315.0 21.09 -135.0
318.0 22.93 -135.0
321.0 15.78 -135.0
324.0 12.86 -135.0
327.0 15.85 -135.0
330.0 16.99 -135.0
333.0 16.34 -135.0
336.0 10.14 -135.0
339.0 2.69 -135.0
354.0 1.48 -135.0
360.0 0.69 -135.0
369.0 1.21 -135.0
183.0 3.18 -132.0
186.0 3.15 -132.0
246.0 6.2 -132.0
249.0 6.04 -132.0
252.0 6.59 -132.0
273.0 1.97 -132.0
276.0 1.54 -132.0
279.0 1.57 -132.0
285.0 1.41 -132.0
297.0 15.85 -132.0
300.0 16.34 -132.0
303.0 25.69 -132.0
306.0 26.08 -132.0
309.0 15.98 -132.0
312.0 13.94 -132.0
315.0 17.42 -132.0
318.0 19.59 -132.0
321.0 4.82 -132.0
324.0 12.66 -132.0
327.0 8.96 -132.0
330.0 11.58 -132.0
336.0 1.57 -132.0
339.0 1.57 -132.0
348.0 1.18 -132.0
351.0 1.51 -132.0
354.0 2.1 -132.0
357.0 2.49 -132.0
369.0 1.02 -132.0
177.0 3.18 -129.0
180.0 3.18 -129.0
237.0 6.49 -129.0
240.0 6.82 -129.0
243.0 6.86 -129.0
246.0 6.69 -129.0
249.0 6.56 -129.0
252.0 5.87 -129.0
273.0 2.0 -129.0
288.0 9.09 -129.0
291.0 12.53 -129.0
294.0 10.1 -129.0
297.0 5.81 -129.0
300.0 16.67 -129.0
303.0 16.9 -129.0
306.0 16.34 -129.0
309.0 11.48 -129.0
312.0 9.91 -129.0
315.0 6.36 -129.0
318.0 5.61 -129.0
321.0 2.59 -129.0
324.0 2.03 -129.0
327.0 1.84 -129.0
333.0 2.13 -129.0
336.0 1.48 -129.0
351.0 1.54 -129.0
354.0 2.79 -129.0
357.0 1.44 -129.0
363.0 0.72 -129.0
369.0 0.46 -129.0
165.0 3.21 -126.0
168.0 3.25 -126.0
171.0 3.21 -126.0
174.0 3.18 -126.0
228.0 6.82 -126.0
231.0 6.59 -126.0
234.0 6.49 -126.0
237.0 6.82 -126.0
240.0 6.89 -126.0
243.0 6.56 -126.0
246.0 6.56 -126.0
249.0 6.46 -126.0
252.0 1.97 -126.0
276.0 1.8 -126.0
288.0 16.96 -126.0
291.0 15.62 -126.0
294.0 17.19 -126.0
297.0 10.79 -126.0
300.0 11.38 -126.0
315.0 1.77 -126.0
318.0 2.1 -126.0
321.0 1.34 -126.0
324.0 1.93 -126.0
327.0 1.31 -126.0
330.0 2.03 -126.0
333.0 1.87 -126.0
336.0 1.31 -126.0
345.0 1.08 -126.0
351.0 1.15 -126.0
354.0 2.49 -126.0
357.0 2.95 -126.0
363.0 0.36 -126.0
369.0 0.46 -126.0
156.0 3.28 -123.0
165.0 3.21 -123.0
222.0 6.95 -123.0
225.0 8.0 -123.0
228.0 8.0 -123.0
231.0 7.32 -123.0
234.0 6.36 -123.0
237.0 6.36 -123.0
240.0 2.98 -123.0
243.0 3.28 -123.0
246.0 2.69 -123.0
249.0 3.54 -123.0
252.0 3.28 -123.0
255.0 3.12 -123.0
279.0 1.57 -123.0
285.0 10.69 -123.0
288.0 16.08 -123.0
291.0 18.17 -123.0
294.0 15.78 -123.0
297.0 11.09 -123.0
300.0 9.45 -123.0
303.0 1.15 -123.0
312.0 2.23 -123.0
315.0 2.46 -123.0
318.0 2.23 -123.0
321.0 1.87 -123.0
324.0 1.87 -123.0
327.0 1.61 -123.0
330.0 2.03 -123.0
333.0 1.93 -123.0
336.0 1.51 -123.0
339.0 1.18 -123.0
345.0 2.07 -123.0
348.0 1.08 -123.0
351.0 0.82 -123.0
354.0 1.61 -123.0
357.0 2.92 -123.0
360.0 2.49 -123.0
363.0 0.75 -123.0
153.0 3.41 -120.0
156.0 3.31 -120.0
162.0 21.23 -120.0
222.0 6.1 -120.0
225.0 8.53 -120.0
228.0 7.87 -120.0
231.0 5.77 -120.0
234.0 5.48 -120.0
237.0 2.82 -120.0
240.0 2.59 -120.0
243.0 2.92 -120.0
246.0 3.25 -120.0
249.0 2.46 -120.0
252.0 2.33 -120.0
285.0 11.88 -120.0
288.0 9.97 -120.0
291.0 16.53 -120.0
294.0 15.78 -120.0
297.0 10.4 -120.0
300.0 1.41 -120.0
303.0 1.15 -120.0
312.0 2.13 -120.0
315.0 2.03 -120.0
318.0 2.07 -120.0
321.0 1.9 -120.0
324.0 1.87 -120.0
327.0 1.25 -120.0
330.0 1.7 -120.0
333.0 1.84 -120.0
336.0 1.38 -120.0
339.0 1.21 -120.0
342.0 2.07 -120.0
345.0 2.89 -120.0
348.0 2.26 -120.0
354.0 2.72 -120.0
357.0 3.41 -120.0
360.0 2.16 -120.0
138.0 3.41 -117.0
141.0 3.38 -117.0
144.0 3.35 -117.0
147.0 3.35 -117.0
150.0 3.28 -117.0
153.0 3.21 -117.0
165.0 36.35 -117.0
171.0 45.44 -117.0
174.0 41.96 -117.0
177.0 41.7 -117.0
180.0 34.84 -117.0
222.0 3.9 -117.0
225.0 2.75 -117.0
228.0 3.44 -117.0
231.0 3.71 -117.0
234.0 2.79 -117.0
237.0 2.1 -117.0
240.0 2.2 -117.0
243.0 2.62 -117.0
246.0 2.49 -117.0
249.0 2.89 -117.0
252.0 2.66 -117.0
285.0 10.27 -117.0
288.0 14.73 -117.0
291.0 16.5 -117.0
294.0 16.04 -117.0
297.0 12.56 -117.0
300.0 6.89 -117.0
303.0 1.28 -117.0
312.0 1.57 -117.0
315.0 1.9 -117.0
318.0 1.77 -117.0
321.0 1.84 -117.0
324.0 1.28 -117.0
330.0 1.31 -117.0
333.0 1.61 -117.0
339.0 1.21 -117.0
342.0 1.77 -117.0
345.0 2.46 -117.0
348.0 1.87 -117.0
351.0 3.41 -117.0
354.0 1.7 -117.0
357.0 3.51 -117.0
360.0 2.23 -117.0
135.0 3.44 -114.0
138.0 3.35 -114.0
141.0 3.44 -114.0
144.0 3.35 -114.0
165.0 35.76 -114.0
168.0 42.52 -114.0
171.0 47.44 -114.0
174.0 46.52 -114.0
177.0 45.6 -114.0
180.0 35.01 -114.0
183.0 34.51 -114.0
222.0 3.58 -114.0
225.0 2.95 -114.0
228.0 4.17 -114.0
231.0 4.2 -114.0
234.0 3.31 -114.0
237.0 2.23 -114.0
240.0 2.98 -114.0
243.0 2.16 -114.0
246.0 4.13 -114.0
249.0 2.53 -114.0
288.0 14.6 -114.0
291.0 15.94 -114.0
294.0 15.88 -114.0
297.0 14.34 -114.0
300.0 5.94 -114.0
303.0 1.28 -114.0
306.0 2.36 -114.0
309.0 1.87 -114.0
312.0 1.97 -114.0
315.0 2.1 -114.0
318.0 2.33 -114.0
321.0 1.15 -114.0
324.0 1.74 -114.0
327.0 1.7 -114.0
333.0 1.61 -114.0
336.0 1.87 -114.0
339.0 1.38 -114.0
342.0 2.36 -114.0
345.0 1.9 -114.0
348.0 1.44 -114.0
351.0 2.43 -114.0
354.0 1.74 -114.0
357.0 1.64 -114.0
360.0 2.1 -114.0
129.0 3.48 -111.0
132.0 3.64 -111.0
135.0 3.48 -111.0
138.0 3.38 -111.0
162.0 31.53 -111.0
165.0 44.78 -111.0
168.0 46.72 -111.0
171.0 49.7 -111.0
174.0 47.9 -111.0
177.0 46.39 -111.0
180.0 44.72 -111.0
183.0 35.73 -111.0
186.0 38.65 -111.0
222.0 3.31 -111.0
225.0 5.02 -111.0
228.0 5.05 -111.0
231.0 3.61 -111.0
234.0 3.18 -111.0
237.0 2.79 -111.0
240.0 2.23 -111.0
243.0 2.66 -111.0
246.0 3.77 -111.0
249.0 1.97 -111.0
288.0 10.2 -111.0
291.0 12.3 -111.0
294.0 12.89 -111.0
300.0 4.4 -111.0
303.0 1.74 -111.0
306.0 1.41 -111.0
309.0 1.67 -111.0
312.0 1.8 -111.0
315.0 2.0 -111.0
318.0 1.61 -111.0
321.0 2.62 -111.0
324.0 2.23 -111.0
327.0 1.9 -111.0
330.0 1.7 -111.0
333.0 2.53 -111.0
336.0 1.84 -111.0
339.0 1.67 -111.0
342.0 2.1 -111.0
345.0 2.89 -111.0
348.0 1.54 -111.0
351.0 2.36 -111.0
354.0 2.2 -111.0
357.0 1.08 -111.0
360.0 1.15 -111.0
363.0 0.56 -111.0
123.0 3.58 -108.0
126.0 3.67 -108.0
129.0 3.71 -108.0
156.0 40.62 -108.0
159.0 41.14 -108.0
162.0 43.27 -108.0
165.0 45.93 -108.0
168.0 46.0 -108.0
171.0 48.92 -108.0
174.0 49.31 -108.0
177.0 52.56 -108.0
180.0 45.87 -108.0
183.0 49.47 -108.0
186.0 38.22 -108.0
189.0 33.79 -108.0
201.0 29.36 -108.0
204.0 18.17 -108.0
219.0 2.23 -108.0
222.0 3.28 -108.0
225.0 5.35 -108.0
228.0 4.82 -108.0
231.0 3.44 -108.0
234.0 2.36 -108.0
237.0 2.69 -108.0
240.0 1.9 -108.0
243.0 6.43 -108.0
246.0 2.0 -108.0
261.0 4.62 -108.0
264.0 2.82 -108.0
267.0 3.54 -108.0
288.0 14.17 -108.0
291.0 16.53 -108.0
294.0 16.34 -108.0
297.0 12.89 -108.0
300.0 5.54 -108.0
303.0 1.44 -108.0
306.0 1.84 -108.0
309.0 1.64 -108.0
312.0 1.8 -108.0
318.0 2.33 -108.0
321.0 2.07 -108.0
324.0 2.13 -108.0
327.0 2.56 -108.0
330.0 2.82 -108.0
333.0 1.9 -108.0
336.0 2.36 -108.0
339.0 2.69 -108.0
342.0 1.41 -108.0
345.0 1.9 -108.0
348.0 1.61 -108.0
351.0 2.43 -108.0
354.0 1.38 -108.0
357.0 0.98 -108.0
366.0 0.59 -108.0
369.0 0.62 -108.0
120.0 3.58 -105.0
123.0 3.48 -105.0
156.0 43.96 -105.0
159.0 46.65 -105.0
162.0 49.57 -105.0
165.0 50.95 -105.0
168.0 49.9 -105.0
171.0 52.36 -105.0
174.0 52.59 -105.0
177.0 53.08 -105.0
180.0 53.28 -105.0
183.0 48.52 -105.0
186.0 46.19 -105.0
189.0 35.14 -105.0
195.0 34.84 -105.0
201.0 27.98 -105.0
204.0 5.87 -105.0
219.0 2.75 -105.0
222.0 3.38 -105.0
225.0 4.76 -105.0
228.0 4.43 -105.0
231.0 1.97 -105.0
234.0 2.0 -105.0
237.0 1.9 -105.0
240.0 2.2 -105.0
243.0 2.2 -105.0
258.0 4.69 -105.0
261.0 4.79 -105.0
264.0 4.53 -105.0
267.0 4.85 -105.0
291.0 15.39 -105.0
294.0 17.09 -105.0
297.0 12.66 -105.0
300.0 5.54 -105.0
303.0 1.97 -105.0
306.0 1.51 -105.0
321.0 1.61 -105.0
324.0 2.66 -105.0
327.0 2.66 -105.0
330.0 2.69 -105.0
333.0 3.21 -105.0
336.0 1.84 -105.0
339.0 2.07 -105.0
342.0 2.82 -105.0
345.0 2.03 -105.0
348.0 1.05 -105.0
360.0 0.66 -105.0
114.0 3.67 -102.0
117.0 3.58 -102.0
153.0 37.63 -102.0
156.0 43.44 -102.0
159.0 46.98 -102.0
162.0 55.94 -102.0
165.0 56.72 -102.0
168.0 54.26 -102.0
171.0 53.74 -102.0
174.0 54.53 -102.0
177.0 53.54 -102.0
180.0 52.3 -102.0
183.0 46.42 -102.0
186.0 45.64 -102.0
189.0 38.91 -102.0
192.0 38.09 -102.0
195.0 34.68 -102.0
204.0 6.04 -102.0
207.0 2.46 -102.0
210.0 3.51 -102.0
213.0 3.18 -102.0
216.0 4.46 -102.0
219.0 7.71 -102.0
222.0 7.28 -102.0
225.0 4.49 -102.0
228.0 3.02 -102.0
231.0 2.13 -102.0
234.0 2.1 -102.0
237.0 2.16 -102.0
240.0 2.13 -102.0
243.0 1.87 -102.0
258.0 3.05 -102.0
267.0 4.23 -102.0
294.0 1.38 -102.0
300.0 5.81 -102.0
303.0 5.64 -102.0
324.0 1.02 -102.0
327.0 1.34 -102.0
336.0 3.05 -102.0
339.0 2.79 -102.0
342.0 2.72 -102.0
345.0 1.87 -102.0
360.0 2.33 -102.0
363.0 3.84 -102.0
366.0 3.51 -102.0
108.0 3.67 -99.0
111.0 3.48 -99.0
114.0 3.61 -99.0
135.0 2.56 -99.0
138.0 2.36 -99.0
141.0 2.3 -99.0
153.0 36.06 -99.0
156.0 42.58 -99.0
159.0 42.03 -99.0
162.0 58.4 -99.0
165.0 57.02 -99.0
168.0 56.82 -99.0
171.0 54.72 -99.0
174.0 54.23 -99.0
177.0 53.48 -99.0
180.0 52.59 -99.0
183.0 52.53 -99.0
186.0 52.66 -99.0
189.0 39.17 -99.0
192.0 38.98 -99.0
195.0 33.5 -99.0
204.0 6.13 -99.0
222.0 7.71 -99.0
225.0 2.75 -99.0
228.0 4.33 -99.0
231.0 2.13 -99.0
234.0 2.2 -99.0
237.0 2.16 -99.0
240.0 2.03 -99.0
288.0 1.74 -99.0
303.0 5.71 -99.0
336.0 2.36 -99.0
339.0 3.25 -99.0
342.0 2.49 -99.0
345.0 1.48 -99.0
360.0 2.07 -99.0
363.0 3.94 -99.0
366.0 3.84 -99.0
105.0 3.67 -96.0
138.0 2.2 -96.0
156.0 49.24 -96.0
159.0 55.35 -96.0
162.0 58.07 -96.0
165.0 60.07 -96.0
168.0 57.74 -96.0
171.0 57.94 -96.0
174.0 54.53 -96.0
177.0 66.24 -96.0
180.0 46.69 -96.0
183.0 53.84 -96.0
186.0 54.07 -96.0
189.0 48.56 -96.0
192.0 39.43 -96.0
195.0 39.83 -96.0
201.0 6.2 -96.0
204.0 5.87 -96.0
222.0 6.92 -96.0
225.0 4.1 -96.0
228.0 2.1 -96.0
231.0 2.23 -96.0
234.0 2.2 -96.0
237.0 1.93 -96.0
288.0 1.44 -96.0
291.0 1.54 -96.0
303.0 5.54 -96.0
330.0 1.02 -96.0
336.0 1.05 -96.0
339.0 2.26 -96.0
342.0 2.16 -96.0
345.0 1.9 -96.0
357.0 1.05 -96.0
360.0 1.05 -96.0
363.0 1.02 -96.0
366.0 0.52 -96.0
99.0 3.84 -93.0
102.0 3.61 -93.0
156.0 48.98 -93.0
159.0 57.25 -93.0
162.0 58.04 -93.0
165.0 58.37 -93.0
168.0 57.25 -93.0
171.0 57.41 -93.0
174.0 65.81 -93.0
177.0 66.76 -93.0
180.0 56.13 -93.0
183.0 55.15 -93.0
186.0 50.29 -93.0
189.0 39.86 -93.0
192.0 41.08 -93.0
201.0 6.23 -93.0
204.0 5.28 -93.0
222.0 7.68 -93.0
225.0 2.53 -93.0
228.0 2.3 -93.0
231.0 2.1 -93.0
234.0 2.07 -93.0
237.0 1.87 -93.0
288.0 1.7 -93.0
291.0 1.54 -93.0
303.0 5.71 -93.0
333.0 1.02 -93.0
336.0 1.44 -93.0
354.0 0.85 -93.0
357.0 1.08 -93.0
360.0 3.44 -93.0
363.0 1.25 -93.0
366.0 0.59 -93.0
369.0 1.05 -93.0
93.0 3.77 -90.0
135.0 2.26 -90.0
156.0 51.41 -90.0
159.0 55.35 -90.0
162.0 57.28 -90.0
165.0 56.17 -90.0
168.0 56.69 -90.0
171.0 60.63 -90.0
174.0 66.99 -90.0
177.0 78.44 -90.0
180.0 64.7 -90.0
183.0 53.94 -90.0
186.0 49.57 -90.0
189.0 38.84 -90.0
192.0 41.53 -90.0
195.0 40.32 -90.0
198.0 2.2 -90.0
201.0 5.94 -90.0
222.0 7.68 -90.0
225.0 2.53 -90.0
228.0 2.3 -90.0
231.0 2.13 -90.0
234.0 2.03 -90.0
288.0 1.74 -90.0
291.0 8.96 -90.0
294.0 10.56 -90.0
297.0 10.33 -90.0
300.0 12.24 -90.0
303.0 5.64 -90.0
330.0 2.3 -90.0
336.0 4.3 -90.0
339.0 2.43 -90.0
354.0 0.85 -90.0
357.0 1.28 -90.0
360.0 3.84 -90.0
363.0 3.9 -90.0
87.0 3.87 -87.0
129.0 2.66 -87.0
141.0 2.62 -87.0
144.0 2.56 -87.0
147.0 2.49 -87.0
156.0 52.56 -87.0
159.0 53.15 -87.0
162.0 54.66 -87.0
165.0 56.07 -87.0
168.0 68.47 -87.0
171.0 60.86 -87.0
174.0 75.69 -87.0
177.0 78.64 -87.0
180.0 77.75 -87.0
183.0 74.31 -87.0
186.0 52.53 -87.0
189.0 36.06 -87.0
192.0 34.64 -87.0
195.0 5.18 -87.0
198.0 5.84 -87.0
222.0 7.48 -87.0
225.0 2.49 -87.0
228.0 2.36 -87.0
231.0 2.1 -87.0
234.0 1.97 -87.0
288.0 1.97 -87.0
291.0 10.69 -87.0
294.0 13.78 -87.0
297.0 15.71 -87.0
300.0 13.19 -87.0
303.0 10.1 -87.0
306.0 1.84 -87.0
327.0 1.34 -87.0
330.0 1.41 -87.0
333.0 3.97 -87.0
336.0 4.23 -87.0
357.0 0.82 -87.0
360.0 3.54 -87.0
363.0 4.92 -87.0
126.0 2.85 -84.0
129.0 2.89 -84.0
138.0 2.75 -84.0
141.0 2.89 -84.0
144.0 2.62 -84.0
153.0 42.95 -84.0
156.0 42.62 -84.0
159.0 50.95 -84.0
162.0 54.85 -84.0
165.0 65.91 -84.0
168.0 72.37 -84.0
171.0 84.48 -84.0
174.0 84.78 -84.0
177.0 78.94 -84.0
180.0 85.53 -84.0
183.0 84.81 -84.0
186.0 78.08 -84.0
189.0 51.9 -84.0
222.0 7.51 -84.0
225.0 7.71 -84.0
228.0 2.3 -84.0
231.0 2.07 -84.0
234.0 1.97 -84.0
291.0 11.06 -84.0
294.0 14.66 -84.0
297.0 16.73 -84.0
300.0 14.3 -84.0
303.0 11.45 -84.0
306.0 2.92 -84.0
330.0 1.51 -84.0
333.0 2.43 -84.0
336.0 1.28 -84.0
339.0 1.08 -84.0
342.0 1.02 -84.0
360.0 4.92 -84.0
363.0 6.33 -84.0
366.0 5.12 -84.0
129.0 3.58 -81.0
132.0 3.08 -81.0
138.0 6.0 -81.0
141.0 7.48 -81.0
153.0 36.12 -81.0
156.0 41.17 -81.0
159.0 46.55 -81.0
162.0 50.2 -81.0
165.0 66.6 -81.0
168.0 72.31 -81.0
171.0 86.25 -81.0
174.0 89.43 -81.0
177.0 91.73 -81.0
180.0 88.71 -81.0
183.0 81.95 -81.0
186.0 70.57 -81.0
189.0 30.28 -81.0
222.0 2.2 -81.0
225.0 7.48 -81.0
228.0 2.16 -81.0
231.0 2.43 -81.0
234.0 2.46 -81.0
294.0 12.3 -81.0
297.0 13.75 -81.0
300.0 12.56 -81.0
303.0 8.69 -81.0
306.0 6.07 -81.0
309.0 1.8 -81.0
327.0 3.58 -81.0
330.0 3.58 -81.0
333.0 3.61 -81.0
336.0 2.13 -81.0
339.0 1.25 -81.0
342.0 1.02 -81.0
360.0 0.72 -81.0
363.0 5.15 -81.0
366.0 6.43 -81.0
369.0 6.53 -81.0
72.0 3.94 -78.0
111.0 3.71 -78.0
126.0 2.95 -78.0
129.0 3.77 -78.0
132.0 3.31 -78.0
138.0 14.24 -78.0
141.0 9.19 -78.0
144.0 3.15 -78.0
156.0 34.35 -78.0
159.0 43.27 -78.0
162.0 54.23 -78.0
165.0 61.15 -78.0
168.0 84.74 -78.0
171.0 84.51 -78.0
174.0 89.07 -78.0
177.0 90.78 -78.0
180.0 85.76 -78.0
183.0 79.33 -78.0
186.0 81.53 -78.0
222.0 2.62 -78.0
225.0 3.77 -78.0
228.0 2.3 -78.0
306.0 6.04 -78.0
321.0 1.44 -78.0
327.0 3.54 -78.0
330.0 3.8 -78.0
333.0 2.89 -78.0
336.0 2.36 -78.0
339.0 0.98 -78.0
366.0 5.22 -78.0
369.0 6.72 -78.0
105.0 2.85 -75.0
108.0 2.92 -75.0
111.0 4.92 -75.0
123.0 3.05 -75.0
129.0 3.74 -75.0
138.0 8.82 -75.0
141.0 11.28 -75.0
159.0 56.4 -75.0
162.0 55.51 -75.0
165.0 61.81 -75.0
168.0 69.06 -75.0
171.0 84.81 -75.0
174.0 87.27 -75.0
177.0 85.27 -75.0
180.0 86.84 -75.0
183.0 78.38 -75.0
186.0 71.39 -75.0
222.0 2.2 -75.0
225.0 7.77 -75.0
228.0 2.23 -75.0
297.0 6.59 -75.0
300.0 7.77 -75.0
303.0 7.18 -75.0
306.0 4.76 -75.0
309.0 1.87 -75.0
327.0 1.97 -75.0
330.0 2.82 -75.0
333.0 1.31 -75.0
336.0 4.82 -75.0
339.0 5.22 -75.0
342.0 0.98 -75.0
354.0 0.88 -75.0
357.0 0.98 -75.0
369.0 1.08 -75.0
96.0 2.89 -72.0
99.0 2.92 -72.0
102.0 3.02 -72.0
111.0 4.76 -72.0
114.0 3.67 -72.0
129.0 3.8 -72.0
132.0 3.05 -72.0
141.0 7.84 -72.0
144.0 3.08 -72.0
162.0 54.69 -72.0
165.0 61.35 -72.0
168.0 61.68 -72.0
171.0 77.07 -72.0
174.0 80.08 -72.0
177.0 80.67 -72.0
180.0 81.53 -72.0
183.0 80.05 -72.0
186.0 72.64 -72.0
189.0 48.75 -72.0
222.0 2.33 -72.0
225.0 7.41 -72.0
228.0 2.36 -72.0
231.0 2.2 -72.0
234.0 2.03 -72.0
294.0 6.95 -72.0
297.0 12.47 -72.0
300.0 13.71 -72.0
303.0 11.84 -72.0
306.0 6.2 -72.0
315.0 1.51 -72.0
336.0 5.38 -72.0
339.0 4.95 -72.0
351.0 0.75 -72.0
354.0 2.33 -72.0
357.0 2.66 -72.0
360.0 1.48 -72.0
369.0 0.62 -72.0
96.0 3.05 -69.0
99.0 3.02 -69.0
102.0 3.08 -69.0
114.0 3.77 -69.0
129.0 3.84 -69.0
138.0 2.92 -69.0
141.0 3.8 -69.0
165.0 60.07 -69.0
168.0 61.78 -69.0
171.0 77.72 -69.0
174.0 80.58 -69.0
177.0 80.61 -69.0
180.0 67.62 -69.0
183.0 59.78 -69.0
186.0 58.89 -69.0
189.0 48.62 -69.0
192.0 48.26 -69.0
222.0 2.36 -69.0
225.0 7.48 -69.0
228.0 2.33 -69.0
231.0 2.23 -69.0
234.0 2.2 -69.0
291.0 6.86 -69.0
294.0 13.32 -69.0
297.0 13.91 -69.0
300.0 13.48 -69.0
306.0 1.9 -69.0
309.0 1.7 -69.0
312.0 1.77 -69.0
318.0 1.44 -69.0
339.0 0.85 -69.0
351.0 1.48 -69.0
354.0 2.39 -69.0
357.0 2.82 -69.0
360.0 1.57 -69.0
51.0 3.97 -66.0
93.0 3.08 -66.0
96.0 9.78 -66.0
99.0 9.61 -66.0
111.0 5.67 -66.0
114.0 6.69 -66.0
123.0 3.21 -66.0
126.0 3.21 -66.0
129.0 4.1 -66.0
132.0 4.49 -66.0
141.0 8.2 -66.0
144.0 3.77 -66.0
165.0 10.37 -66.0
168.0 48.62 -66.0
171.0 47.01 -66.0
174.0 40.52 -66.0
177.0 67.88 -66.0
180.0 67.68 -66.0
183.0 37.6 -66.0
186.0 45.47 -66.0
201.0 2.46 -66.0
222.0 2.59 -66.0
225.0 7.58 -66.0
228.0 2.26 -66.0
231.0 2.39 -66.0
234.0 2.1 -66.0
294.0 10.83 -66.0
297.0 14.66 -66.0
300.0 12.4 -66.0
306.0 6.04 -66.0
309.0 5.81 -66.0
321.0 1.67 -66.0
327.0 1.38 -66.0
330.0 1.34 -66.0
336.0 0.92 -66.0
351.0 0.82 -66.0
354.0 2.59 -66.0
357.0 3.35 -66.0
360.0 2.3 -66.0
363.0 0.92 -66.0
48.0 3.8 -63.0
87.0 3.18 -63.0
90.0 9.71 -63.0
93.0 11.42 -63.0
96.0 12.7 -63.0
99.0 19.98 -63.0
102.0 11.97 -63.0
111.0 10.24 -63.0
114.0 14.6 -63.0
117.0 8.59 -63.0
126.0 3.28 -63.0
129.0 3.05 -63.0
138.0 8.59 -63.0
141.0 9.71 -63.0
144.0 9.32 -63.0
165.0 10.17 -63.0
171.0 34.58 -63.0
174.0 36.91 -63.0
177.0 35.96 -63.0
180.0 37.7 -63.0
183.0 37.33 -63.0
222.0 2.33 -63.0
225.0 5.84 -63.0
228.0 2.39 -63.0
231.0 2.33 -63.0
234.0 2.2 -63.0
288.0 1.41 -63.0
291.0 8.04 -63.0
294.0 8.53 -63.0
297.0 8.46 -63.0
300.0 8.66 -63.0
303.0 8.63 -63.0
309.0 5.51 -63.0
315.0 1.67 -63.0
327.0 1.31 -63.0
354.0 2.26 -63.0
357.0 3.31 -63.0
360.0 2.39 -63.0
363.0 1.31 -63.0
78.0 3.31 -60.0
81.0 3.21 -60.0
84.0 3.35 -60.0
90.0 12.07 -60.0
93.0 18.8 -60.0
96.0 26.48 -60.0
99.0 27.3 -60.0
102.0 26.31 -60.0
105.0 12.56 -60.0
111.0 7.18 -60.0
114.0 10.86 -60.0
117.0 9.84 -60.0
138.0 3.54 -60.0
141.0 7.15 -60.0
144.0 8.1 -60.0
147.0 11.94 -60.0
150.0 17.68 -60.0
153.0 17.29 -60.0
159.0 15.68 -60.0
174.0 35.1 -60.0
177.0 36.15 -60.0
180.0 36.28 -60.0
195.0 2.62 -60.0
222.0 2.26 -60.0
225.0 7.54 -60.0
228.0 2.33 -60.0
231.0 2.36 -60.0
234.0 2.13 -60.0
285.0 6.07 -60.0
288.0 8.56 -60.0
291.0 8.37 -60.0
294.0 8.37 -60.0
297.0 8.66 -60.0
300.0 8.76 -60.0
303.0 8.69 -60.0
306.0 7.15 -60.0
309.0 5.97 -60.0
333.0 1.51 -60.0
354.0 1.48 -60.0
357.0 3.25 -60.0
360.0 3.05 -60.0
363.0 1.9 -60.0
366.0 1.02 -60.0
36.0 4.13 -57.0
60.0 27.95 -57.0
63.0 31.23 -57.0
66.0 29.79 -57.0
69.0 29.99 -57.0
72.0 33.73 -57.0
75.0 33.07 -57.0
78.0 3.38 -57.0
81.0 3.35 -57.0
84.0 3.35 -57.0
87.0 11.15 -57.0
90.0 13.22 -57.0
93.0 26.84 -57.0
96.0 39.53 -57.0
99.0 38.32 -57.0
102.0 31.92 -57.0
105.0 23.62 -57.0
108.0 12.5 -57.0
111.0 4.46 -57.0
114.0 6.72 -57.0
117.0 5.12 -57.0
141.0 8.3 -57.0
144.0 5.48 -57.0
150.0 15.16 -57.0
225.0 4.26 -57.0
228.0 2.36 -57.0
231.0 2.2 -57.0
234.0 2.13 -57.0
288.0 8.59 -57.0
291.0 8.5 -57.0
294.0 8.82 -57.0
297.0 8.59 -57.0
300.0 8.92 -57.0
303.0 9.05 -57.0
306.0 7.84 -57.0
309.0 6.79 -57.0
354.0 1.41 -57.0
357.0 2.59 -57.0
360.0 2.98 -57.0
363.0 2.1 -57.0
369.0 0.72 -57.0
57.0 28.38 -54.0
60.0 29.23 -54.0
63.0 30.84 -54.0
66.0 31.56 -54.0
69.0 40.16 -54.0
72.0 42.03 -54.0
75.0 41.57 -54.0
78.0 35.01 -54.0
81.0 18.54 -54.0
87.0 12.56 -54.0
90.0 22.01 -54.0
93.0 32.41 -54.0
96.0 42.26 -54.0
99.0 43.83 -54.0
102.0 35.1 -54.0
105.0 25.1 -54.0
108.0 12.2 -54.0
123.0 22.44 -54.0
126.0 30.64 -54.0
129.0 30.9 -54.0
141.0 7.74 -54.0
144.0 6.46 -54.0
147.0 8.1 -54.0
225.0 7.35 -54.0
228.0 2.43 -54.0
231.0 2.36 -54.0
234.0 2.26 -54.0
288.0 8.89 -54.0
291.0 8.96 -54.0
294.0 8.92 -54.0
297.0 8.86 -54.0
300.0 9.22 -54.0
303.0 9.32 -54.0
306.0 7.71 -54.0
309.0 6.95 -54.0
312.0 4.3 -54.0
327.0 2.0 -54.0
330.0 1.9 -54.0
354.0 1.28 -54.0
357.0 2.72 -54.0
360.0 3.48 -54.0
363.0 2.07 -54.0
27.0 4.2 -51.0
57.0 26.77 -51.0
60.0 28.94 -51.0
63.0 37.14 -51.0
66.0 37.47 -51.0
69.0 43.21 -51.0
72.0 43.31 -51.0
75.0 41.44 -51.0
78.0 36.74 -51.0
81.0 32.22 -51.0
84.0 22.18 -51.0
90.0 12.27 -51.0
93.0 22.83 -51.0
96.0 36.74 -51.0
99.0 29.66 -51.0
102.0 26.74 -51.0
105.0 16.96 -51.0
108.0 11.94 -51.0
123.0 31.07 -51.0
126.0 31.3 -51.0
129.0 31.07 -51.0
132.0 21.69 -51.0
135.0 19.22 -51.0
141.0 6.43 -51.0
144.0 6.69 -51.0
225.0 7.54 -51.0
228.0 7.61 -51.0
231.0 2.36 -51.0
234.0 2.26 -51.0
237.0 2.16 -51.0
288.0 9.02 -51.0
291.0 9.41 -51.0
294.0 9.09 -51.0
297.0 9.25 -51.0
300.0 9.22 -51.0
303.0 9.41 -51.0
306.0 7.61 -51.0
309.0 6.72 -51.0
312.0 4.43 -51.0
357.0 2.59 -51.0
360.0 2.98 -51.0
363.0 1.51 -51.0
21.0 4.3 -48.0
24.0 4.17 -48.0
57.0 22.11 -48.0
60.0 33.3 -48.0
63.0 37.6 -48.0
66.0 44.95 -48.0
69.0 43.54 -48.0
72.0 44.36 -48.0
75.0 45.64 -48.0
78.0 43.73 -48.0
81.0 23.46 -48.0
84.0 23.62 -48.0
87.0 17.91 -48.0
93.0 14.4 -48.0
96.0 15.22 -48.0
99.0 26.64 -48.0
102.0 21.65 -48.0
105.0 14.73 -48.0
123.0 28.54 -48.0
126.0 31.33 -48.0
129.0 34.28 -48.0
132.0 35.69 -48.0
135.0 26.05 -48.0
138.0 24.8 -48.0
141.0 5.25 -48.0
144.0 6.3 -48.0
147.0 3.44 -48.0
225.0 2.72 -48.0
228.0 2.56 -48.0
231.0 2.36 -48.0
234.0 2.13 -48.0
237.0 1.97 -48.0
285.0 7.74 -48.0
288.0 8.43 -48.0
291.0 8.46 -48.0
294.0 8.56 -48.0
297.0 8.53 -48.0
300.0 8.56 -48.0
303.0 8.56 -48.0
306.0 8.14 -48.0
312.0 4.1 -48.0
354.0 1.21 -48.0
357.0 2.26 -48.0
360.0 2.53 -48.0
363.0 1.21 -48.0
366.0 0.79 -48.0
18.0 4.23 -45.0
54.0 3.54 -45.0
57.0 26.31 -45.0
60.0 29.49 -45.0
63.0 37.43 -45.0
66.0 44.39 -45.0
69.0 47.01 -45.0
72.0 47.01 -45.0
75.0 45.34 -45.0
78.0 44.26 -45.0
81.0 30.08 -45.0
84.0 23.42 -45.0
87.0 19.36 -45.0
93.0 10.3 -45.0
96.0 18.17 -45.0
99.0 17.85 -45.0
102.0 9.55 -45.0
105.0 9.09 -45.0
123.0 46.98 -45.0
126.0 29.49 -45.0
129.0 44.19 -45.0
132.0 43.83 -45.0
135.0 41.11 -45.0
138.0 44.19 -45.0
141.0 45.41 -45.0
144.0 8.5 -45.0
225.0 2.98 -45.0
228.0 7.51 -45.0
231.0 2.39 -45.0
234.0 2.1 -45.0
237.0 1.9 -45.0
285.0 8.79 -45.0
288.0 9.22 -45.0
291.0 9.05 -45.0
294.0 9.28 -45.0
297.0 9.05 -45.0
300.0 9.15 -45.0
303.0 9.09 -45.0
306.0 8.86 -45.0
309.0 5.97 -45.0
312.0 2.39 -45.0
348.0 1.08 -45.0
357.0 1.18 -45.0
360.0 1.15 -45.0
12.0 4.17 -42.0
45.0 3.58 -42.0
48.0 3.74 -42.0
51.0 3.84 -42.0
54.0 3.71 -42.0
57.0 25.33 -42.0
60.0 25.1 -42.0
63.0 36.09 -42.0
66.0 44.59 -42.0
69.0 46.78 -42.0
72.0 48.26 -42.0
75.0 48.52 -42.0
78.0 45.14 -42.0
81.0 41.53 -42.0
84.0 23.1 -42.0
87.0 19.29 -42.0
90.0 16.8 -42.0
93.0 28.28 -42.0
96.0 36.45 -42.0
99.0 30.12 -42.0
102.0 29.76 -42.0
105.0 10.04 -42.0
111.0 10.6 -42.0
114.0 12.07 -42.0
120.0 35.86 -42.0
123.0 48.29 -42.0
126.0 51.38 -42.0
129.0 50.16 -42.0
132.0 49.47 -42.0
135.0 47.7 -42.0
138.0 47.24 -42.0
141.0 46.65 -42.0
144.0 3.54 -42.0
225.0 2.62 -42.0
228.0 7.48 -42.0
231.0 2.36 -42.0
234.0 2.26 -42.0
237.0 1.87 -42.0
285.0 9.32 -42.0
288.0 9.41 -42.0
291.0 9.38 -42.0
294.0 9.32 -42.0
297.0 9.22 -42.0
300.0 9.09 -42.0
303.0 8.89 -42.0
306.0 8.46 -42.0
312.0 6.23 -42.0
318.0 1.44 -42.0
327.0 1.38 -42.0
330.0 1.38 -42.0
342.0 1.28 -42.0
351.0 1.25 -42.0
357.0 0.95 -42.0
360.0 0.98 -42.0
6.0 4.26 -39.0
9.0 4.3 -39.0
45.0 3.84 -39.0
48.0 4.07 -39.0
51.0 21.82 -39.0
54.0 23.85 -39.0
57.0 24.97 -39.0
60.0 35.4 -39.0
63.0 33.79 -39.0
66.0 44.39 -39.0
69.0 44.09 -39.0
72.0 47.64 -39.0
75.0 48.52 -39.0
78.0 44.22 -39.0
81.0 29.95 -39.0
84.0 26.93 -39.0
87.0 18.37 -39.0
90.0 23.0 -39.0
93.0 42.85 -39.0
96.0 45.18 -39.0
99.0 42.16 -39.0
102.0 36.32 -39.0
105.0 28.05 -39.0
111.0 5.31 -39.0
114.0 20.11 -39.0
120.0 34.94 -39.0
123.0 45.18 -39.0
126.0 54.89 -39.0
129.0 49.44 -39.0
132.0 57.41 -39.0
135.0 56.07 -39.0
138.0 53.12 -39.0
141.0 47.37 -39.0
144.0 46.91 -39.0
219.0 15.65 -39.0
225.0 2.82 -39.0
228.0 7.58 -39.0
231.0 2.46 -39.0
234.0 2.16 -39.0
237.0 1.93 -39.0
288.0 8.69 -39.0
291.0 8.79 -39.0
294.0 8.37 -39.0
297.0 8.37 -39.0
300.0 8.3 -39.0
303.0 8.3 -39.0
306.0 8.04 -39.0
309.0 2.07 -39.0
312.0 6.56 -39.0
315.0 1.61 -39.0
324.0 1.54 -39.0
345.0 1.21 -39.0
348.0 1.54 -39.0
351.0 1.08 -39.0
3.0 4.26 -36.0
6.0 4.23 -36.0
21.0 23.78 -36.0
24.0 24.64 -36.0
27.0 26.18 -36.0
33.0 28.25 -36.0
36.0 27.89 -36.0
39.0 36.45 -36.0
42.0 36.32 -36.0
45.0 39.5 -36.0
48.0 33.04 -36.0
51.0 21.49 -36.0
54.0 27.66 -36.0
57.0 25.66 -36.0
60.0 32.02 -36.0
63.0 36.06 -36.0
66.0 35.27 -36.0
69.0 42.91 -36.0
72.0 42.29 -36.0
75.0 42.81 -36.0
78.0 40.48 -36.0
81.0 26.34 -36.0
84.0 35.69 -36.0
87.0 33.4 -36.0
90.0 26.15 -36.0
93.0 51.74 -36.0
96.0 56.23 -36.0
99.0 53.54 -36.0
102.0 47.87 -36.0
105.0 31.1 -36.0
114.0 20.14 -36.0
117.0 21.32 -36.0
120.0 40.65 -36.0
123.0 43.7 -36.0
126.0 57.25 -36.0
129.0 59.58 -36.0
132.0 63.45 -36.0
135.0 61.81 -36.0
138.0 53.15 -36.0
141.0 47.47 -36.0
144.0 47.87 -36.0
147.0 47.08 -36.0
225.0 2.3 -36.0
228.0 7.87 -36.0
231.0 2.39 -36.0
234.0 2.13 -36.0
285.0 6.33 -36.0
288.0 8.17 -36.0
291.0 7.87 -36.0
294.0 7.32 -36.0
297.0 6.3 -36.0
300.0 15.98 -36.0
303.0 7.58 -36.0
306.0 7.41 -36.0
309.0 7.38 -36.0
312.0 7.28 -36.0
321.0 1.61 -36.0
342.0 1.34 -36.0
351.0 1.64 -36.0
363.0 1.15 -36.0
-3.0 4.33 -33.0
0.0 4.23 -33.0
18.0 23.56 -33.0
21.0 30.9 -33.0
24.0 33.86 -33.0
27.0 33.3 -33.0
30.0 33.04 -33.0
33.0 31.07 -33.0
36.0 35.96 -33.0
39.0 38.58 -33.0
42.0 41.57 -33.0
45.0 41.63 -33.0
48.0 40.98 -33.0
51.0 40.71 -33.0
54.0 32.74 -33.0
57.0 36.78 -33.0
60.0 37.37 -33.0
63.0 39.34 -33.0
66.0 36.48 -33.0
69.0 36.88 -33.0
72.0 37.86 -33.0
75.0 38.06 -33.0
78.0 23.1 -33.0
84.0 36.58 -33.0
87.0 21.91 -33.0
90.0 27.79 -33.0
93.0 52.89 -33.0
96.0 59.45 -33.0
99.0 53.12 -33.0
102.0 43.5 -33.0
105.0 33.23 -33.0
114.0 28.21 -33.0
117.0 41.47 -33.0
120.0 41.83 -33.0
123.0 49.28 -33.0
126.0 59.09 -33.0
129.0 62.27 -33.0
132.0 68.31 -33.0
135.0 61.02 -33.0
138.0 61.58 -33.0
141.0 51.7 -33.0
144.0 50.06 -33.0
147.0 46.69 -33.0
150.0 31.56 -33.0
219.0 16.63 -33.0
225.0 2.59 -33.0
228.0 7.51 -33.0
231.0 2.39 -33.0
234.0 2.13 -33.0
288.0 7.81 -33.0
291.0 8.73 -33.0
294.0 8.3 -33.0
297.0 15.12 -33.0
300.0 7.74 -33.0
303.0 7.91 -33.0
306.0 7.71 -33.0
309.0 7.97 -33.0
312.0 7.81 -33.0
318.0 1.51 -33.0
339.0 1.44 -33.0
345.0 3.77 -33.0
348.0 1.25 -33.0
351.0 1.15 -33.0
354.0 1.08 -33.0
363.0 1.25 -33.0
366.0 7.35 -33.0
369.0 2.72 -33.0
-6.0 4.26 -30.0
-3.0 4.17 -30.0
18.0 25.62 -30.0
21.0 34.38 -30.0
24.0 39.07 -30.0
27.0 40.22 -30.0
30.0 42.29 -30.0
33.0 38.12 -30.0
36.0 40.65 -30.0
39.0 43.31 -30.0
42.0 44.42 -30.0
45.0 44.36 -30.0
48.0 44.72 -30.0
51.0 43.86 -30.0
54.0 38.55 -30.0
57.0 42.03 -30.0
60.0 42.19 -30.0
63.0 39.5 -30.0
66.0 34.22 -30.0
69.0 34.22 -30.0
72.0 32.77 -30.0
75.0 29.36 -30.0
78.0 28.08 -30.0
87.0 16.76 -30.0
90.0 29.17 -30.0
93.0 45.73 -30.0
96.0 52.23 -30.0
99.0 45.6 -30.0
102.0 39.2 -30.0
105.0 21.69 -30.0
111.0 30.64 -30.0
114.0 36.09 -30.0
117.0 39.76 -30.0
120.0 40.78 -30.0
123.0 44.16 -30.0
126.0 60.3 -30.0
129.0 59.81 -30.0
132.0 68.01 -30.0
135.0 68.4 -30.0
138.0 59.09 -30.0
141.0 50.06 -30.0
144.0 46.62 -30.0
147.0 42.91 -30.0
150.0 32.71 -30.0
225.0 2.43 -30.0
228.0 7.64 -30.0
231.0 2.43 -30.0
255.0 1.93 -30.0
264.0 2.0 -30.0
270.0 1.8 -30.0
273.0 2.36 -30.0
276.0 1.67 -30.0
288.0 7.84 -30.0
291.0 8.82 -30.0
294.0 8.5 -30.0
297.0 7.28 -30.0
300.0 8.17 -30.0
303.0 8.27 -30.0
306.0 8.2 -30.0
309.0 8.14 -30.0
312.0 8.0 -30.0
318.0 1.9 -30.0
324.0 1.61 -30.0
345.0 3.97 -30.0
363.0 1.48 -30.0
366.0 4.99 -30.0
369.0 6.76 -30.0
-12.0 4.26 -27.0
-9.0 4.23 -27.0
15.0 24.8 -27.0
18.0 26.18 -27.0
21.0 35.79 -27.0
24.0 38.65 -27.0
27.0 43.86 -27.0
30.0 43.34 -27.0
33.0 37.66 -27.0
36.0 41.44 -27.0
39.0 45.11 -27.0
42.0 50.13 -27.0
45.0 48.72 -27.0
48.0 48.33 -27.0
51.0 44.85 -27.0
54.0 41.67 -27.0
57.0 43.57 -27.0
60.0 43.93 -27.0
63.0 38.88 -27.0
66.0 40.62 -27.0
69.0 38.45 -27.0
72.0 34.84 -27.0
75.0 20.93 -27.0
78.0 21.23 -27.0
81.0 19.59 -27.0
87.0 8.89 -27.0
90.0 12.3 -27.0
93.0 28.64 -27.0
96.0 32.87 -27.0
99.0 27.69 -27.0
102.0 28.51 -27.0
105.0 11.45 -27.0
114.0 28.87 -27.0
117.0 35.07 -27.0
120.0 44.13 -27.0
123.0 44.72 -27.0
126.0 50.82 -27.0
129.0 59.71 -27.0
132.0 66.8 -27.0
135.0 72.57 -27.0
138.0 69.19 -27.0
141.0 68.08 -27.0
144.0 51.61 -27.0
147.0 45.41 -27.0
150.0 47.11 -27.0
153.0 28.18 -27.0
225.0 2.39 -27.0
228.0 7.71 -27.0
237.0 5.9 -27.0
240.0 5.25 -27.0
249.0 2.53 -27.0
252.0 2.69 -27.0
255.0 2.43 -27.0
258.0 10.37 -27.0
261.0 10.5 -27.0
264.0 10.43 -27.0
267.0 2.07 -27.0
270.0 3.12 -27.0
273.0 3.94 -27.0
276.0 4.2 -27.0
288.0 7.64 -27.0
291.0 8.53 -27.0
294.0 8.53 -27.0
297.0 7.35 -27.0
300.0 9.38 -27.0
303.0 9.19 -27.0
306.0 9.41 -27.0
309.0 9.51 -27.0
312.0 9.35 -27.0
315.0 1.87 -27.0
318.0 2.1 -27.0
336.0 2.13 -27.0
354.0 6.1 -27.0
357.0 1.48 -27.0
360.0 1.21 -27.0
363.0 1.21 -27.0
366.0 1.31 -27.0
369.0 1.28 -27.0
-15.0 4.13 -24.0
-12.0 4.23 -24.0
15.0 18.6 -24.0
18.0 33.27 -24.0
21.0 37.43 -24.0
24.0 41.76 -24.0
27.0 43.37 -24.0
30.0 45.31 -24.0
33.0 40.19 -24.0
36.0 43.27 -24.0
39.0 46.0 -24.0
42.0 50.82 -24.0
45.0 50.2 -24.0
48.0 48.42 -24.0
51.0 45.04 -24.0
54.0 48.72 -24.0
57.0 44.91 -24.0
60.0 41.57 -24.0
63.0 39.6 -24.0
66.0 35.04 -24.0
69.0 35.66 -24.0
72.0 35.46 -24.0
75.0 35.5 -24.0
78.0 18.37 -24.0
90.0 4.36 -24.0
96.0 11.65 -24.0
99.0 11.88 -24.0
102.0 15.78 -24.0
105.0 50.16 -24.0
117.0 30.35 -24.0
120.0 42.65 -24.0
123.0 45.44 -24.0
126.0 52.53 -24.0
129.0 62.63 -24.0
132.0 67.52 -24.0
135.0 75.16 -24.0
138.0 73.16 -24.0
141.0 71.32 -24.0
144.0 54.3 -24.0
147.0 45.57 -24.0
150.0 46.39 -24.0
153.0 41.4 -24.0
228.0 7.38 -24.0
246.0 2.66 -24.0
249.0 4.3 -24.0
252.0 5.71 -24.0
255.0 5.18 -24.0
258.0 10.5 -24.0
261.0 10.46 -24.0
264.0 10.96 -24.0
267.0 8.4 -24.0
270.0 2.03 -24.0
273.0 3.38 -24.0
276.0 4.82 -24.0
279.0 10.07 -24.0
282.0 8.4 -24.0
288.0 6.0 -24.0
300.0 10.17 -24.0
303.0 10.1 -24.0
306.0 10.3 -24.0
309.0 10.3 -24.0
312.0 10.2 -24.0
315.0 2.82 -24.0
318.0 2.07 -24.0
321.0 1.57 -24.0
324.0 1.67 -24.0
339.0 1.25 -24.0
354.0 5.71 -24.0
360.0 1.61 -24.0
363.0 1.18 -24.0
-21.0 4.17 -21.0
-18.0 4.17 -21.0
-15.0 4.23 -21.0
15.0 27.07 -21.0
18.0 32.58 -21.0
21.0 39.73 -21.0
24.0 41.27 -21.0
27.0 43.21 -21.0
30.0 43.5 -21.0
33.0 43.96 -21.0
36.0 43.44 -21.0
39.0 46.36 -21.0
42.0 50.1 -21.0
45.0 50.46 -21.0
48.0 49.11 -21.0
51.0 43.47 -21.0
54.0 43.27 -21.0
57.0 45.83 -21.0
60.0 44.19 -21.0
63.0 44.39 -21.0
66.0 41.34 -21.0
69.0 36.74 -21.0
72.0 34.02 -21.0
93.0 7.68 -21.0
96.0 9.35 -21.0
105.0 51.38 -21.0
108.0 51.18 -21.0
114.0 48.19 -21.0
117.0 24.41 -21.0
120.0 43.4 -21.0
123.0 45.9 -21.0
126.0 47.47 -21.0
129.0 47.57 -21.0
132.0 64.57 -21.0
135.0 70.87 -21.0
138.0 72.31 -21.0
141.0 65.98 -21.0
144.0 54.72 -21.0
147.0 38.55 -21.0
150.0 40.03 -21.0
153.0 42.62 -21.0
225.0 2.3 -21.0
228.0 5.54 -21.0
231.0 7.77 -21.0
246.0 2.75 -21.0
249.0 2.59 -21.0
252.0 10.83 -21.0
255.0 10.89 -21.0
258.0 10.76 -21.0
261.0 10.76 -21.0
264.0 10.86 -21.0
267.0 10.99 -21.0
270.0 11.15 -21.0
273.0 11.02 -21.0
276.0 10.96 -21.0
279.0 11.48 -21.0
291.0 1.38 -21.0
300.0 10.04 -21.0
303.0 10.17 -21.0
306.0 9.94 -21.0
309.0 10.01 -21.0
312.0 10.01 -21.0
315.0 9.38 -21.0
318.0 1.7 -21.0
321.0 1.9 -21.0
324.0 1.9 -21.0
327.0 1.74 -21.0
330.0 1.44 -21.0
333.0 1.31 -21.0
348.0 1.28 -21.0
-21.0 4.13 -18.0
12.0 3.71 -18.0
15.0 29.59 -18.0
18.0 35.89 -18.0
21.0 38.94 -18.0
24.0 39.8 -18.0
27.0 41.83 -18.0
30.0 43.01 -18.0
33.0 45.83 -18.0
36.0 43.77 -18.0
39.0 42.85 -18.0
42.0 46.03 -18.0
45.0 48.78 -18.0
48.0 46.75 -18.0
51.0 44.09 -18.0
54.0 40.16 -18.0
57.0 38.88 -18.0
60.0 44.16 -18.0
63.0 44.91 -18.0
66.0 41.27 -18.0
69.0 37.37 -18.0
72.0 32.64 -18.0
84.0 12.56 -18.0
87.0 14.04 -18.0
90.0 14.57 -18.0
93.0 14.17 -18.0
96.0 12.93 -18.0
99.0 30.15 -18.0
102.0 29.53 -18.0
105.0 50.13 -18.0
108.0 51.02 -18.0
111.0 49.44 -18.0
114.0 78.71 -18.0
117.0 71.03 -18.0
120.0 67.85 -18.0
123.0 49.77 -18.0
126.0 48.46 -18.0
129.0 60.01 -18.0
132.0 65.68 -18.0
135.0 61.45 -18.0
138.0 59.87 -18.0
141.0 60.66 -18.0
144.0 56.23 -18.0
147.0 23.72 -18.0
156.0 40.52 -18.0
228.0 5.12 -18.0
231.0 7.35 -18.0
237.0 8.23 -18.0
240.0 7.81 -18.0
246.0 10.86 -18.0
249.0 10.89 -18.0
252.0 10.79 -18.0
255.0 10.96 -18.0
258.0 11.22 -18.0
261.0 11.15 -18.0
264.0 11.25 -18.0
267.0 11.28 -18.0
270.0 11.25 -18.0
273.0 11.38 -18.0
276.0 11.38 -18.0
279.0 11.32 -18.0
291.0 1.93 -18.0
300.0 9.25 -18.0
303.0 9.15 -18.0
306.0 8.92 -18.0
309.0 9.09 -18.0
312.0 9.02 -18.0
315.0 1.57 -18.0
318.0 1.87 -18.0
321.0 1.8 -18.0
324.0 1.67 -18.0
327.0 1.54 -18.0
330.0 1.61 -18.0
339.0 1.34 -18.0
348.0 2.33 -18.0
357.0 1.51 -18.0
-27.0 4.23 -15.0
9.0 4.26 -15.0
12.0 4.43 -15.0
15.0 28.35 -15.0
18.0 31.95 -15.0
21.0 39.47 -15.0
24.0 40.22 -15.0
27.0 42.95 -15.0
30.0 44.06 -15.0
33.0 44.39 -15.0
36.0 42.06 -15.0
39.0 41.63 -15.0
42.0 42.55 -15.0
45.0 45.37 -15.0
48.0 40.98 -15.0
51.0 40.09 -15.0
54.0 38.02 -15.0
57.0 37.04 -15.0
60.0 41.08 -15.0
63.0 39.17 -15.0
66.0 36.22 -15.0
69.0 38.81 -15.0
72.0 36.32 -15.0
75.0 26.48 -15.0
84.0 14.6 -15.0
87.0 15.12 -15.0
90.0 14.93 -15.0
93.0 21.06 -15.0
96.0 14.2 -15.0
99.0 30.64 -15.0
102.0 35.83 -15.0
105.0 36.35 -15.0
108.0 71.55 -15.0
111.0 69.65 -15.0
114.0 78.25 -15.0
117.0 83.82 -15.0
120.0 66.57 -15.0
123.0 50.75 -15.0
126.0 54.23 -15.0
129.0 49.28 -15.0
132.0 57.51 -15.0
135.0 58.3 -15.0
138.0 55.54 -15.0
141.0 55.28 -15.0
144.0 54.2 -15.0
147.0 55.81 -15.0
150.0 54.56 -15.0
153.0 53.67 -15.0
156.0 40.94 -15.0
159.0 55.67 -15.0
162.0 55.71 -15.0
165.0 55.38 -15.0
225.0 18.11 -15.0
228.0 5.74 -15.0
231.0 8.07 -15.0
234.0 7.97 -15.0
237.0 6.27 -15.0
246.0 11.25 -15.0
249.0 11.38 -15.0
252.0 11.28 -15.0
255.0 11.51 -15.0
258.0 11.42 -15.0
261.0 11.38 -15.0
264.0 11.55 -15.0
267.0 11.65 -15.0
270.0 11.58 -15.0
273.0 11.78 -15.0
276.0 11.84 -15.0
279.0 11.68 -15.0
291.0 1.77 -15.0
297.0 1.51 -15.0
300.0 6.92 -15.0
303.0 7.51 -15.0
306.0 7.32 -15.0
309.0 7.05 -15.0
312.0 7.87 -15.0
315.0 5.71 -15.0
318.0 3.31 -15.0
321.0 1.57 -15.0
324.0 1.67 -15.0
327.0 1.84 -15.0
330.0 1.48 -15.0
342.0 6.23 -15.0
351.0 1.38 -15.0
354.0 1.67 -15.0
357.0 1.21 -15.0
-30.0 4.07 -12.0
-27.0 4.03 -12.0
0.0 4.0 -12.0
3.0 4.17 -12.0
6.0 4.43 -12.0
9.0 4.4 -12.0
12.0 4.36 -12.0
15.0 4.2 -12.0
18.0 35.43 -12.0
21.0 35.89 -12.0
24.0 35.4 -12.0
27.0 41.83 -12.0
30.0 42.78 -12.0
33.0 41.3 -12.0
36.0 40.06 -12.0
39.0 38.29 -12.0
42.0 40.22 -12.0
45.0 41.37 -12.0
48.0 37.33 -12.0
51.0 35.89 -12.0
54.0 35.27 -12.0
57.0 36.35 -12.0
60.0 33.69 -12.0
63.0 33.82 -12.0
66.0 37.4 -12.0
69.0 37.89 -12.0
72.0 30.9 -12.0
75.0 30.38 -12.0
87.0 14.96 -12.0
90.0 14.96 -12.0
93.0 21.82 -12.0
96.0 44.78 -12.0
99.0 53.02 -12.0
102.0 71.62 -12.0
105.0 69.13 -12.0
108.0 71.13 -12.0
111.0 71.13 -12.0
114.0 77.98 -12.0
117.0 81.99 -12.0
120.0 81.86 -12.0
123.0 67.72 -12.0
126.0 57.02 -12.0
129.0 57.41 -12.0
132.0 57.38 -12.0
135.0 56.27 -12.0
138.0 55.41 -12.0
141.0 54.23 -12.0
144.0 49.64 -12.0
147.0 63.58 -12.0
150.0 63.68 -12.0
153.0 55.41 -12.0
156.0 54.1 -12.0
159.0 56.04 -12.0
162.0 66.67 -12.0
165.0 65.78 -12.0
168.0 66.37 -12.0
228.0 3.41 -12.0
231.0 7.81 -12.0
246.0 11.38 -12.0
249.0 11.65 -12.0
252.0 11.78 -12.0
255.0 11.81 -12.0
258.0 11.91 -12.0
261.0 12.07 -12.0
264.0 12.01 -12.0
267.0 12.11 -12.0
270.0 12.07 -12.0
273.0 12.11 -12.0
276.0 12.3 -12.0
279.0 12.17 -12.0
282.0 1.74 -12.0
300.0 8.53 -12.0
303.0 8.5 -12.0
306.0 8.37 -12.0
309.0 8.2 -12.0
312.0 8.04 -12.0
315.0 7.84 -12.0
324.0 1.44 -12.0
327.0 1.61 -12.0
330.0 1.34 -12.0
351.0 6.92 -12.0
354.0 7.54 -12.0
357.0 1.18 -12.0
-36.0 4.1 -9.0
-33.0 4.07 -9.0
-30.0 4.07 -9.0
0.0 4.3 -9.0
3.0 4.49 -9.0
6.0 4.43 -9.0
9.0 4.33 -9.0
12.0 4.33 -9.0
15.0 4.17 -9.0
18.0 33.0 -9.0
21.0 34.02 -9.0
24.0 38.98 -9.0
27.0 37.86 -9.0
30.0 41.53 -9.0
33.0 40.25 -9.0
36.0 40.62 -9.0
39.0 40.35 -9.0
42.0 43.44 -9.0
45.0 41.01 -9.0
48.0 38.25 -9.0
51.0 36.94 -9.0
54.0 33.53 -9.0
57.0 23.19 -9.0
60.0 36.91 -9.0
63.0 34.68 -9.0
66.0 26.77 -9.0
69.0 27.66 -9.0
72.0 27.49 -9.0
87.0 54.92 -9.0
90.0 54.59 -9.0
93.0 61.42 -9.0
96.0 56.99 -9.0
99.0 64.3 -9.0
102.0 69.72 -9.0
105.0 69.16 -9.0
108.0 69.19 -9.0
111.0 78.87 -9.0
114.0 77.53 -9.0
117.0 81.23 -9.0
120.0 79.53 -9.0
123.0 68.57 -9.0
126.0 66.99 -9.0
129.0 68.08 -9.0
132.0 66.21 -9.0
135.0 55.64 -9.0
138.0 55.41 -9.0
141.0 52.56 -9.0
147.0 63.06 -9.0
150.0 80.22 -9.0
153.0 84.19 -9.0
156.0 53.61 -9.0
159.0 77.95 -9.0
162.0 78.12 -9.0
165.0 72.11 -9.0
168.0 66.93 -9.0
171.0 42.88 -9.0
225.0 3.71 -9.0
228.0 3.44 -9.0
231.0 6.49 -9.0
246.0 11.94 -9.0
249.0 12.11 -9.0
252.0 12.2 -9.0
255.0 12.5 -9.0
258.0 12.3 -9.0
261.0 12.4 -9.0
264.0 12.43 -9.0
267.0 12.47 -9.0
270.0 12.56 -9.0
273.0 12.43 -9.0
276.0 12.47 -9.0
279.0 12.43 -9.0
282.0 2.23 -9.0
300.0 7.54 -9.0
303.0 7.91 -9.0
306.0 6.63 -9.0
309.0 5.67 -9.0
312.0 5.22 -9.0
315.0 6.04 -9.0
318.0 2.92 -9.0
324.0 1.44 -9.0
327.0 1.31 -9.0
342.0 1.18 -9.0
345.0 3.64 -9.0
348.0 8.23 -9.0
351.0 6.1 -9.0
354.0 4.3 -9.0
-39.0 4.17 -6.0
-36.0 4.07 -6.0
-33.0 3.97 -6.0
-3.0 4.07 -6.0
0.0 4.53 -6.0
3.0 4.53 -6.0
6.0 4.43 -6.0
9.0 4.36 -6.0
12.0 4.17 -6.0
21.0 28.97 -6.0
24.0 39.04 -6.0
27.0 38.75 -6.0
30.0 38.68 -6.0
33.0 35.99 -6.0
36.0 40.75 -6.0
39.0 40.88 -6.0
42.0 41.01 -6.0
45.0 42.91 -6.0
48.0 38.16 -6.0
51.0 36.02 -6.0
54.0 23.06 -6.0
57.0 21.91 -6.0
60.0 36.91 -6.0
69.0 25.43 -6.0
90.0 60.1 -6.0
93.0 62.89 -6.0
96.0 61.02 -6.0
99.0 63.65 -6.0
102.0 70.31 -6.0
105.0 82.74 -6.0
108.0 83.14 -6.0
111.0 86.84 -6.0
114.0 88.45 -6.0
117.0 90.55 -6.0
120.0 95.87 -6.0
123.0 98.62 -6.0
126.0 72.9 -6.0
129.0 74.93 -6.0
132.0 66.63 -6.0
135.0 54.49 -6.0
138.0 34.64 -6.0
141.0 8.86 -6.0
144.0 58.69 -6.0
147.0 60.83 -6.0
150.0 80.51 -6.0
153.0 85.17 -6.0
156.0 69.68 -6.0
159.0 78.77 -6.0
162.0 78.08 -6.0
165.0 72.34 -6.0
168.0 65.32 -6.0
171.0 44.39 -6.0
174.0 46.06 -6.0
228.0 4.72 -6.0
231.0 7.61 -6.0
237.0 8.76 -6.0
240.0 8.1 -6.0
246.0 12.3 -6.0
249.0 12.5 -6.0
252.0 12.5 -6.0
255.0 12.5 -6.0
258.0 12.47 -6.0
261.0 12.66 -6.0
264.0 12.43 -6.0
267.0 12.4 -6.0
270.0 12.27 -6.0
273.0 12.11 -6.0
276.0 12.14 -6.0
279.0 12.07 -6.0
282.0 9.78 -6.0
294.0 1.48 -6.0
297.0 4.26 -6.0
318.0 2.46 -6.0
333.0 1.44 -6.0
351.0 6.3 -6.0
354.0 6.43 -6.0
357.0 8.17 -6.0
-39.0 4.07 -3.0
-24.0 3.9 -3.0
-21.0 3.77 -3.0
-18.0 3.51 -3.0
-6.0 4.59 -3.0
-3.0 4.56 -3.0
0.0 4.53 -3.0
3.0 4.66 -3.0
6.0 4.46 -3.0
21.0 28.64 -3.0
24.0 28.67 -3.0
27.0 32.28 -3.0
33.0 33.14 -3.0
36.0 36.22 -3.0
39.0 38.94 -3.0
42.0 39.11 -3.0
45.0 42.68 -3.0
48.0 33.86 -3.0
51.0 34.22 -3.0
90.0 57.84 -3.0
93.0 58.73 -3.0
96.0 65.06 -3.0
99.0 67.39 -3.0
102.0 71.98 -3.0
105.0 82.28 -3.0
108.0 84.55 -3.0
111.0 88.06 -3.0
114.0 93.8 -3.0
117.0 94.95 -3.0
120.0 93.96 -3.0
123.0 98.85 -3.0
126.0 95.83 -3.0
129.0 78.15 -3.0
132.0 79.03 -3.0
135.0 63.19 -3.0
138.0 79.62 -3.0
141.0 29.13 -3.0
147.0 65.85 -3.0
150.0 84.28 -3.0
153.0 86.84 -3.0
156.0 86.74 -3.0
159.0 87.33 -3.0
162.0 83.43 -3.0
165.0 83.96 -3.0
168.0 61.71 -3.0
171.0 44.72 -3.0
174.0 43.96 -3.0
225.0 2.79 -3.0
228.0 4.62 -3.0
231.0 7.25 -3.0
237.0 8.46 -3.0
240.0 8.3 -3.0
243.0 7.28 -3.0
246.0 11.71 -3.0
249.0 12.01 -3.0
252.0 12.07 -3.0
255.0 13.19 -3.0
258.0 12.04 -3.0
261.0 12.04 -3.0
264.0 11.91 -3.0
267.0 11.61 -3.0
270.0 11.78 -3.0
273.0 11.68 -3.0
276.0 11.71 -3.0
279.0 11.65 -3.0
282.0 8.89 -3.0
318.0 3.21 -3.0
333.0 1.15 -3.0
351.0 9.05 -3.0
354.0 9.68 -3.0
357.0 0.98 -3.0
360.0 1.15 -3.0
363.0 0.92 -3.0
366.0 0.92 -3.0
-60.0 4.17 -0.0
-45.0 4.1 -0.0
-42.0 4.03 -0.0
-27.0 3.8 -0.0
-24.0 3.64 -0.0
-21.0 3.64 -0.0
-18.0 3.58 -0.0
-9.0 4.59 -0.0
-6.0 4.56 -0.0
-3.0 4.62 -0.0
0.0 4.49 -0.0
3.0 4.53 -0.0
6.0 4.3 -0.0
36.0 36.88 -0.0
39.0 34.58 -0.0
42.0 38.61 -0.0
45.0 34.19 -0.0
48.0 31.49 -0.0
51.0 25.36 -0.0
84.0 56.79 -0.0
87.0 57.35 -0.0
90.0 54.59 -0.0
93.0 61.78 -0.0
96.0 63.52 -0.0
99.0 74.38 -0.0
102.0 73.85 -0.0
105.0 80.94 -0.0
108.0 79.92 -0.0
111.0 90.39 -0.0
114.0 94.09 -0.0
117.0 95.21 -0.0
120.0 93.44 -0.0
123.0 95.9 -0.0
126.0 94.19 -0.0
129.0 78.28 -0.0
132.0 79.2 -0.0
135.0 80.64 -0.0
138.0 82.45 -0.0
141.0 22.44 -0.0
147.0 66.57 -0.0
150.0 83.5 -0.0
153.0 88.12 -0.0
156.0 90.12 -0.0
159.0 87.56 -0.0
162.0 83.79 -0.0
165.0 81.95 -0.0
168.0 71.09 -0.0
171.0 49.77 -0.0
174.0 49.77 -0.0
177.0 45.24 -0.0
225.0 2.43 -0.0
228.0 3.84 -0.0
231.0 6.89 -0.0
234.0 12.11 -0.0
237.0 12.83 -0.0
240.0 9.84 -0.0
243.0 6.53 -0.0
246.0 6.69 -0.0
249.0 11.84 -0.0
252.0 11.81 -0.0
255.0 11.74 -0.0
258.0 11.74 -0.0
261.0 11.58 -0.0
264.0 12.04 -0.0
267.0 11.58 -0.0
270.0 11.55 -0.0
273.0 11.42 -0.0
276.0 11.22 -0.0
279.0 11.28 -0.0
282.0 1.93 -0.0
297.0 1.38 -0.0
318.0 2.66 -0.0
324.0 1.48 -0.0
327.0 2.16 -0.0
330.0 1.08 -0.0
333.0 1.11 -0.0
351.0 1.08 -0.0
357.0 1.02 -0.0
360.0 1.57 -0.0
363.0 1.11 -0.0
-66.0 4.36 3.0
-48.0 4.13 3.0
-33.0 3.9 3.0
-30.0 3.84 3.0
-24.0 3.64 3.0
-12.0 4.76 3.0
-9.0 4.82 3.0
-6.0 4.49 3.0
-3.0 4.53 3.0
0.0 4.53 3.0
3.0 4.4 3.0
6.0 4.23 3.0
42.0 33.4 3.0
45.0 26.64 3.0
48.0 21.59 3.0
90.0 60.04 3.0
93.0 60.37 3.0
96.0 62.96 3.0
99.0 66.01 3.0
102.0 70.31 3.0
105.0 75.03 3.0
108.0 79.26 3.0
111.0 88.98 3.0
114.0 89.11 3.0
117.0 89.66 3.0
120.0 93.96 3.0
123.0 95.34 3.0
126.0 91.37 3.0
129.0 91.9 3.0
132.0 78.64 3.0
135.0 78.21 3.0
138.0 55.35 3.0
141.0 36.09 3.0
147.0 56.46 3.0
150.0 84.87 3.0
153.0 86.42 3.0
156.0 88.52 3.0
159.0 88.35 3.0
162.0 83.23 3.0
165.0 72.64 3.0
168.0 73.36 3.0
171.0 50.46 3.0
174.0 45.41 3.0
177.0 44.98 3.0
180.0 25.33 3.0
228.0 2.3 3.0
231.0 7.02 3.0
234.0 11.48 3.0
237.0 13.52 3.0
240.0 10.46 3.0
249.0 11.32 3.0
252.0 11.28 3.0
255.0 11.15 3.0
258.0 11.45 3.0
261.0 11.42 3.0
264.0 11.12 3.0
267.0 10.96 3.0
270.0 10.89 3.0
273.0 11.06 3.0
276.0 10.96 3.0
279.0 10.99 3.0
282.0 11.45 3.0
300.0 1.34 3.0
303.0 10.86 3.0
306.0 11.84 3.0
309.0 10.6 3.0
312.0 10.53 3.0
315.0 9.74 3.0
318.0 1.41 3.0
324.0 1.34 3.0
327.0 1.84 3.0
357.0 0.98 3.0
360.0 1.31 3.0
363.0 1.38 3.0
-54.0 4.1 6.0
-33.0 3.94 6.0
-30.0 3.77 6.0
-27.0 3.77 6.0
-24.0 3.48 6.0
-15.0 4.49 6.0
-12.0 4.79 6.0
-9.0 4.85 6.0
-6.0 4.56 6.0
-3.0 4.43 6.0
0.0 4.33 6.0
3.0 4.3 6.0
87.0 51.48 6.0
90.0 51.61 6.0
93.0 59.87 6.0
96.0 57.15 6.0
99.0 60.89 6.0
102.0 61.19 6.0
105.0 72.9 6.0
108.0 74.77 6.0
111.0 88.02 6.0
114.0 86.88 6.0
117.0 89.11 6.0
120.0 71.65 6.0
123.0 90.65 6.0
126.0 91.01 6.0
129.0 73.42 6.0
132.0 73.0 6.0
135.0 61.22 6.0
138.0 39.01 6.0
141.0 38.81 6.0
144.0 47.64 6.0
147.0 73.13 6.0
150.0 86.25 6.0
153.0 86.78 6.0
156.0 88.55 6.0
159.0 88.58 6.0
162.0 84.87 6.0
165.0 59.61 6.0
168.0 73.65 6.0
171.0 62.01 6.0
174.0 37.07 6.0
177.0 27.26 6.0
231.0 3.21 6.0
234.0 12.17 6.0
237.0 13.09 6.0
240.0 16.11 6.0
243.0 12.76 6.0
249.0 10.76 6.0
252.0 10.83 6.0
255.0 10.86 6.0
258.0 10.79 6.0
261.0 10.79 6.0
264.0 10.92 6.0
267.0 11.71 6.0
270.0 11.55 6.0
273.0 11.55 6.0
276.0 11.55 6.0
279.0 11.55 6.0
282.0 11.48 6.0
300.0 10.66 6.0
303.0 12.17 6.0
306.0 13.71 6.0
309.0 13.78 6.0
312.0 13.78 6.0
315.0 14.34 6.0
318.0 3.15 6.0
321.0 1.05 6.0
324.0 1.21 6.0
327.0 1.57 6.0
345.0 1.08 6.0
348.0 1.02 6.0
351.0 1.25 6.0
363.0 2.36 6.0
366.0 1.7 6.0
-75.0 4.36 9.0
-57.0 4.1 9.0
-33.0 3.87 9.0
-30.0 3.8 9.0
-18.0 3.97 9.0
-15.0 4.62 9.0
-12.0 4.72 9.0
-9.0 4.69 9.0
-6.0 4.56 9.0
-3.0 4.3 9.0
0.0 4.4 9.0
87.0 52.2 9.0
90.0 52.26 9.0
93.0 56.59 9.0
96.0 59.28 9.0
99.0 59.02 9.0
102.0 62.27 9.0
105.0 43.6 9.0
108.0 74.34 9.0
111.0 73.88 9.0
114.0 68.63 9.0
117.0 68.14 9.0
120.0 68.34 9.0
123.0 80.74 9.0
126.0 75.46 9.0
129.0 76.05 9.0
132.0 62.43 9.0
135.0 64.53 9.0
138.0 58.96 9.0
141.0 48.33 9.0
144.0 64.2 9.0
147.0 75.43 9.0
150.0 82.15 9.0
153.0 81.56 9.0
156.0 83.23 9.0
159.0 85.14 9.0
162.0 73.33 9.0
165.0 60.73 9.0
168.0 62.01 9.0
171.0 62.47 9.0
174.0 34.91 9.0
204.0 3.74 9.0
231.0 10.66 9.0
234.0 13.61 9.0
237.0 16.47 9.0
240.0 16.11 9.0
243.0 13.58 9.0
249.0 10.37 9.0
252.0 10.43 9.0
255.0 10.33 9.0
258.0 10.43 9.0
261.0 10.37 9.0
264.0 10.43 9.0
267.0 11.55 9.0
270.0 11.15 9.0
273.0 11.45 9.0
276.0 11.48 9.0
279.0 11.42 9.0
282.0 11.25 9.0
300.0 9.71 9.0
303.0 14.3 9.0
306.0 15.35 9.0
309.0 16.83 9.0
312.0 16.8 9.0
315.0 12.79 9.0
318.0 11.61 9.0
324.0 1.21 9.0
330.0 1.18 9.0
342.0 0.98 9.0
351.0 0.98 9.0
363.0 1.9 9.0
366.0 2.85 9.0
-78.0 4.17 12.0
-60.0 4.1 12.0
-33.0 3.9 12.0
-30.0 37.33 12.0
-27.0 47.51 12.0
-24.0 41.3 12.0
-21.0 4.03 12.0
-18.0 4.43 12.0
-15.0 4.56 12.0
-12.0 4.66 12.0
-9.0 4.62 12.0
-6.0 4.33 12.0
-3.0 4.33 12.0
18.0 4.62 12.0
90.0 54.33 12.0
93.0 57.28 12.0
96.0 58.76 12.0
99.0 49.9 12.0
102.0 56.3 12.0
105.0 65.52 12.0
108.0 65.75 12.0
111.0 63.06 12.0
114.0 69.78 12.0
117.0 68.6 12.0
120.0 60.69 12.0
123.0 81.36 12.0
