ply
format ascii 1.0
comment Original LiDAR: USGS National Dataset
comment Cropped and converted to PLY by CloudCompare v2.11 alpha (Anoia)
comment Converted from original position to centered position by Chris Calef.
element vertex 2865
property float x
property float y
property float z
end_header
-21.0 1.87 -54.0
-18.0 1.73 -54.0
-15.0 1.66 -54.0
-12.0 1.69 -54.0
-9.0 1.71 -54.0
-6.0 1.73 -54.0
-3.0 1.75 -54.0
0.0 1.78 -54.0
3.0 1.8 -54.0
6.0 1.82 -54.0
9.0 2.02 -54.0
12.0 2.02 -54.0
15.0 2.0 -54.0
18.0 2.1 -54.0
21.0 2.16 -54.0
24.0 2.14 -54.0
27.0 2.1 -54.0
30.0 2.07 -54.0
33.0 1.87 -54.0
36.0 1.75 -54.0
-171.0 4.03 -51.0
-168.0 3.01 -51.0
-165.0 7.08 -51.0
-162.0 6.79 -51.0
-159.0 2.85 -51.0
-156.0 2.55 -51.0
-153.0 2.69 -51.0
-150.0 2.49 -51.0
-147.0 2.46 -51.0
-144.0 2.62 -51.0
-141.0 2.19 -51.0
-138.0 2.26 -51.0
-135.0 1.96 -51.0
-132.0 1.96 -51.0
-129.0 1.73 -51.0
-126.0 1.67 -51.0
-123.0 1.7 -51.0
-120.0 1.8 -51.0
-117.0 1.54 -51.0
-114.0 1.8 -51.0
-111.0 1.87 -51.0
-108.0 2.0 -51.0
-105.0 1.9 -51.0
-102.0 2.0 -51.0
-99.0 2.62 -51.0
-96.0 2.1 -51.0
-93.0 2.23 -51.0
-90.0 2.23 -51.0
-87.0 2.23 -51.0
-84.0 2.26 -51.0
-81.0 2.16 -51.0
-78.0 2.26 -51.0
-75.0 2.13 -51.0
-72.0 2.29 -51.0
-69.0 2.16 -51.0
-66.0 2.29 -51.0
-63.0 2.16 -51.0
-60.0 2.29 -51.0
-57.0 2.23 -51.0
-54.0 2.19 -51.0
-51.0 2.23 -51.0
-48.0 2.13 -51.0
-45.0 2.19 -51.0
-42.0 2.06 -51.0
-39.0 2.16 -51.0
-36.0 2.23 -51.0
-33.0 2.26 -51.0
-30.0 2.03 -51.0
-27.0 2.06 -51.0
-24.0 1.93 -51.0
-21.0 1.82 -51.0
-18.0 1.71 -51.0
-15.0 1.74 -51.0
-12.0 1.72 -51.0
-9.0 1.7 -51.0
-6.0 1.76 -51.0
-3.0 1.81 -51.0
0.0 1.83 -51.0
3.0 1.86 -51.0
6.0 1.88 -51.0
9.0 2.02 -51.0
12.0 2.02 -51.0
15.0 2.04 -51.0
18.0 2.13 -51.0
21.0 2.11 -51.0
24.0 2.11 -51.0
27.0 2.06 -51.0
30.0 2.03 -51.0
33.0 1.96 -51.0
-171.0 3.01 -48.0
-168.0 6.95 -48.0
-165.0 7.31 -48.0
-162.0 6.1 -48.0
-159.0 3.44 -48.0
-156.0 2.49 -48.0
-153.0 2.42 -48.0
-150.0 2.59 -48.0
-147.0 2.59 -48.0
-144.0 3.14 -48.0
-141.0 2.46 -48.0
-138.0 2.13 -48.0
-135.0 2.06 -48.0
-132.0 1.93 -48.0
-129.0 1.57 -48.0
-126.0 1.57 -48.0
-123.0 1.7 -48.0
-120.0 1.6 -48.0
-117.0 1.73 -48.0
-114.0 1.8 -48.0
-111.0 1.96 -48.0
-108.0 1.93 -48.0
-105.0 2.0 -48.0
-102.0 2.16 -48.0
-99.0 2.1 -48.0
-96.0 2.19 -48.0
-93.0 2.19 -48.0
-90.0 2.26 -48.0
-87.0 2.29 -48.0
-84.0 2.32 -48.0
-81.0 2.55 -48.0
-78.0 2.29 -48.0
-75.0 2.23 -48.0
-72.0 2.19 -48.0
-69.0 2.29 -48.0
-66.0 2.29 -48.0
-63.0 2.32 -48.0
-60.0 2.19 -48.0
-57.0 2.42 -48.0
-54.0 2.16 -48.0
-51.0 2.26 -48.0
-48.0 2.1 -48.0
-45.0 2.06 -48.0
-42.0 2.06 -48.0
-39.0 2.32 -48.0
-36.0 2.19 -48.0
-33.0 2.19 -48.0
-30.0 1.96 -48.0
-27.0 2.1 -48.0
-24.0 2.0 -48.0
-21.0 1.77 -48.0
-18.0 1.73 -48.0
-15.0 1.83 -48.0
-12.0 1.82 -48.0
-9.0 1.79 -48.0
-6.0 1.77 -48.0
-3.0 1.75 -48.0
0.0 1.8 -48.0
3.0 1.86 -48.0
6.0 1.92 -48.0
9.0 2.01 -48.0
12.0 2.02 -48.0
15.0 2.05 -48.0
18.0 2.1 -48.0
21.0 2.07 -48.0
24.0 2.05 -48.0
27.0 2.05 -48.0
30.0 2.05 -48.0
-171.0 2.88 -45.0
-168.0 2.88 -45.0
-165.0 7.38 -45.0
-162.0 4.29 -45.0
-159.0 2.62 -45.0
-156.0 2.65 -45.0
-153.0 2.36 -45.0
-150.0 2.46 -45.0
-147.0 2.42 -45.0
-144.0 2.42 -45.0
-141.0 2.23 -45.0
-138.0 2.1 -45.0
-135.0 2.06 -45.0
-132.0 2.03 -45.0
-129.0 1.64 -45.0
-126.0 1.6 -45.0
-123.0 1.73 -45.0
-120.0 1.57 -45.0
-117.0 1.7 -45.0
-114.0 1.96 -45.0
-111.0 1.93 -45.0
-108.0 2.03 -45.0
-105.0 2.06 -45.0
-102.0 2.26 -45.0
-99.0 2.26 -45.0
-96.0 2.26 -45.0
-93.0 2.46 -45.0
-90.0 2.36 -45.0
-87.0 2.36 -45.0
-84.0 2.39 -45.0
-81.0 2.32 -45.0
-78.0 2.23 -45.0
-75.0 2.29 -45.0
-72.0 2.19 -45.0
-69.0 2.26 -45.0
-66.0 2.23 -45.0
-63.0 2.36 -45.0
-60.0 2.29 -45.0
-57.0 2.16 -45.0
-54.0 2.19 -45.0
-51.0 2.03 -45.0
-48.0 2.13 -45.0
-45.0 1.96 -45.0
-42.0 2.06 -45.0
-39.0 2.16 -45.0
-36.0 2.23 -45.0
-33.0 2.06 -45.0
-30.0 2.03 -45.0
-27.0 2.29 -45.0
-24.0 1.94 -45.0
-21.0 1.61 -45.0
-18.0 1.82 -45.0
-15.0 1.93 -45.0
-12.0 1.93 -45.0
-9.0 1.97 -45.0
-6.0 1.86 -45.0
-3.0 1.84 -45.0
0.0 1.82 -45.0
3.0 1.8 -45.0
6.0 1.84 -45.0
9.0 1.98 -45.0
12.0 2.0 -45.0
15.0 2.06 -45.0
18.0 2.07 -45.0
21.0 2.09 -45.0
24.0 2.01 -45.0
27.0 1.96 -45.0
30.0 1.95 -45.0
-171.0 3.24 -42.0
-168.0 4.88 -42.0
-165.0 5.61 -42.0
-162.0 3.01 -42.0
-159.0 2.69 -42.0
-156.0 2.59 -42.0
-153.0 2.49 -42.0
-150.0 2.23 -42.0
-147.0 2.36 -42.0
-144.0 2.23 -42.0
-141.0 2.06 -42.0
-138.0 2.13 -42.0
-135.0 1.9 -42.0
-132.0 1.83 -42.0
-129.0 1.6 -42.0
-126.0 1.7 -42.0
-123.0 1.64 -42.0
-120.0 1.7 -42.0
-117.0 1.7 -42.0
-114.0 1.87 -42.0
-111.0 2.03 -42.0
-108.0 2.06 -42.0
-105.0 2.29 -42.0
-102.0 2.13 -42.0
-99.0 2.16 -42.0
-96.0 2.29 -42.0
-93.0 2.26 -42.0
-90.0 2.32 -42.0
-87.0 2.42 -42.0
-84.0 2.46 -42.0
-81.0 2.26 -42.0
-78.0 2.36 -42.0
-75.0 2.36 -42.0
-72.0 2.32 -42.0
-69.0 2.29 -42.0
-66.0 2.29 -42.0
-63.0 2.32 -42.0
-60.0 2.19 -42.0
-57.0 2.26 -42.0
-54.0 2.23 -42.0
-51.0 2.19 -42.0
-48.0 2.1 -42.0
-45.0 2.16 -42.0
-42.0 2.1 -42.0
-39.0 2.16 -42.0
-36.0 2.13 -42.0
-33.0 2.16 -42.0
-30.0 2.0 -42.0
-27.0 2.39 -42.0
-24.0 1.77 -42.0
-21.0 1.85 -42.0
-18.0 1.9 -42.0
-15.0 2.03 -42.0
-12.0 2.04 -42.0
-9.0 2.03 -42.0
-6.0 1.96 -42.0
-3.0 1.94 -42.0
0.0 1.92 -42.0
3.0 1.9 -42.0
6.0 1.87 -42.0
9.0 1.94 -42.0
12.0 1.94 -42.0
15.0 1.94 -42.0
18.0 1.99 -42.0
21.0 2.05 -42.0
24.0 2.08 -42.0
27.0 1.94 -42.0
-171.0 3.31 -39.0
-168.0 7.38 -39.0
-165.0 6.72 -39.0
-162.0 2.95 -39.0
-159.0 2.92 -39.0
-156.0 2.52 -39.0
-153.0 2.49 -39.0
-150.0 2.36 -39.0
-147.0 2.32 -39.0
-144.0 2.19 -39.0
-141.0 2.62 -39.0
-138.0 2.1 -39.0
-135.0 2.03 -39.0
-132.0 1.6 -39.0
-129.0 1.83 -39.0
-126.0 1.7 -39.0
-123.0 1.67 -39.0
-120.0 1.64 -39.0
-117.0 1.83 -39.0
-114.0 1.87 -39.0
-111.0 2.06 -39.0
-108.0 2.1 -39.0
-105.0 2.23 -39.0
-102.0 2.26 -39.0
-99.0 2.26 -39.0
-96.0 2.36 -39.0
-93.0 2.26 -39.0
-90.0 2.42 -39.0
-87.0 2.39 -39.0
-84.0 2.36 -39.0
-81.0 2.36 -39.0
-78.0 2.42 -39.0
-75.0 2.32 -39.0
-72.0 2.39 -39.0
-69.0 2.52 -39.0
-66.0 2.16 -39.0
-63.0 2.29 -39.0
-60.0 2.13 -39.0
-57.0 2.13 -39.0
-54.0 1.98 -39.0
-51.0 2.0 -39.0
-48.0 2.16 -39.0
-45.0 2.19 -39.0
-42.0 2.13 -39.0
-39.0 2.13 -39.0
-36.0 2.03 -39.0
-33.0 2.1 -39.0
-30.0 1.87 -39.0
-27.0 2.03 -39.0
-24.0 2.03 -39.0
-21.0 2.0 -39.0
-18.0 2.04 -39.0
-15.0 2.1 -39.0
-12.0 2.09 -39.0
-9.0 2.07 -39.0
-6.0 2.03 -39.0
-3.0 2.0 -39.0
0.0 1.98 -39.0
3.0 1.96 -39.0
6.0 1.94 -39.0
9.0 1.91 -39.0
12.0 1.89 -39.0
15.0 1.87 -39.0
18.0 1.91 -39.0
21.0 1.96 -39.0
24.0 2.02 -39.0
-171.0 10.17 -36.0
-168.0 10.66 -36.0
-165.0 9.25 -36.0
-162.0 9.25 -36.0
-159.0 3.01 -36.0
-156.0 2.78 -36.0
-153.0 2.59 -36.0
-150.0 2.36 -36.0
-147.0 2.13 -36.0
-144.0 2.13 -36.0
-141.0 2.39 -36.0
-138.0 2.16 -36.0
-135.0 1.9 -36.0
-132.0 1.7 -36.0
-129.0 1.67 -36.0
-126.0 1.77 -36.0
-123.0 1.67 -36.0
-120.0 1.67 -36.0
-117.0 1.8 -36.0
-114.0 1.96 -36.0
-111.0 1.96 -36.0
-108.0 2.19 -36.0
-105.0 2.32 -36.0
-102.0 2.36 -36.0
-99.0 2.26 -36.0
-96.0 2.29 -36.0
-93.0 2.39 -36.0
-90.0 2.29 -36.0
-87.0 2.42 -36.0
-84.0 2.26 -36.0
-81.0 2.36 -36.0
-78.0 2.36 -36.0
-75.0 2.49 -36.0
-72.0 2.49 -36.0
-69.0 2.29 -36.0
-66.0 2.26 -36.0
-63.0 2.1 -36.0
-60.0 2.13 -36.0
-57.0 2.01 -36.0
-54.0 2.23 -36.0
-51.0 1.96 -36.0
-48.0 2.16 -36.0
-45.0 2.0 -36.0
-42.0 2.0 -36.0
-39.0 2.06 -36.0
-36.0 2.1 -36.0
-33.0 2.06 -36.0
-30.0 2.03 -36.0
-27.0 2.13 -36.0
-24.0 2.16 -36.0
-21.0 2.06 -36.0
-18.0 2.06 -36.0
-15.0 2.09 -36.0
-12.0 2.1 -36.0
-9.0 2.09 -36.0
-6.0 2.03 -36.0
-3.0 2.01 -36.0
0.0 1.99 -36.0
3.0 1.97 -36.0
6.0 1.94 -36.0
9.0 1.91 -36.0
12.0 1.87 -36.0
15.0 1.85 -36.0
18.0 1.89 -36.0
21.0 1.93 -36.0
24.0 1.98 -36.0
-171.0 9.48 -33.0
-168.0 11.41 -33.0
-165.0 9.81 -33.0
-162.0 7.51 -33.0
-159.0 3.44 -33.0
-156.0 2.72 -33.0
-153.0 2.65 -33.0
-150.0 2.46 -33.0
-147.0 2.26 -33.0
-144.0 2.1 -33.0
-141.0 2.13 -33.0
-138.0 2.06 -33.0
-135.0 2.16 -33.0
-132.0 1.7 -33.0
-129.0 1.8 -33.0
-126.0 1.7 -33.0
-123.0 1.93 -33.0
-120.0 1.96 -33.0
-117.0 1.93 -33.0
-114.0 1.9 -33.0
-111.0 2.13 -33.0
-108.0 2.13 -33.0
-105.0 2.39 -33.0
-102.0 2.32 -33.0
-99.0 2.36 -33.0
-96.0 2.29 -33.0
-93.0 2.36 -33.0
-90.0 2.32 -33.0
-87.0 2.32 -33.0
-84.0 2.39 -33.0
-81.0 2.46 -33.0
-78.0 2.55 -33.0
-75.0 2.46 -33.0
-72.0 2.39 -33.0
-69.0 2.32 -33.0
-66.0 2.23 -33.0
-63.0 2.26 -33.0
-60.0 2.19 -33.0
-57.0 2.23 -33.0
-54.0 2.16 -33.0
-51.0 2.13 -33.0
-48.0 2.19 -33.0
-45.0 2.1 -33.0
-42.0 2.03 -33.0
-39.0 2.03 -33.0
-36.0 2.0 -33.0
-33.0 2.1 -33.0
-30.0 2.03 -33.0
-27.0 2.32 -33.0
-24.0 2.08 -33.0
-21.0 2.04 -33.0
-18.0 2.06 -33.0
-15.0 2.08 -33.0
-12.0 2.09 -33.0
-9.0 2.09 -33.0
-6.0 2.07 -33.0
-3.0 2.05 -33.0
0.0 2.04 -33.0
3.0 1.97 -33.0
6.0 1.92 -33.0
9.0 1.88 -33.0
12.0 1.84 -33.0
15.0 1.82 -33.0
18.0 1.86 -33.0
21.0 1.9 -33.0
-171.0 10.63 -30.0
-168.0 10.26 -30.0
-165.0 9.54 -30.0
-162.0 4.79 -30.0
-159.0 4.03 -30.0
-156.0 2.88 -30.0
-153.0 2.62 -30.0
-150.0 2.69 -30.0
-147.0 2.46 -30.0
-144.0 2.29 -30.0
-141.0 2.26 -30.0
-138.0 1.96 -30.0
-135.0 1.96 -30.0
-132.0 1.9 -30.0
-129.0 1.8 -30.0
-126.0 1.73 -30.0
-123.0 1.96 -30.0
-120.0 1.83 -30.0
-117.0 2.1 -30.0
-114.0 1.93 -30.0
-111.0 2.1 -30.0
-108.0 2.42 -30.0
-105.0 2.29 -30.0
-102.0 2.32 -30.0
-99.0 2.29 -30.0
-96.0 2.23 -30.0
-93.0 2.26 -30.0
-90.0 2.32 -30.0
-87.0 2.42 -30.0
-84.0 2.46 -30.0
-81.0 2.52 -30.0
-78.0 2.46 -30.0
-75.0 2.42 -30.0
-72.0 2.26 -30.0
-69.0 2.42 -30.0
-66.0 2.39 -30.0
-63.0 2.39 -30.0
-60.0 2.36 -30.0
-57.0 2.29 -30.0
-54.0 2.23 -30.0
-51.0 2.13 -30.0
-48.0 2.16 -30.0
-45.0 2.13 -30.0
-42.0 2.1 -30.0
-39.0 2.1 -30.0
-36.0 2.13 -30.0
-33.0 2.1 -30.0
-30.0 2.0 -30.0
-27.0 2.13 -30.0
-24.0 1.87 -30.0
-21.0 1.96 -30.0
-18.0 2.06 -30.0
-15.0 2.09 -30.0
-12.0 2.09 -30.0
-9.0 2.08 -30.0
-6.0 2.06 -30.0
-3.0 2.04 -30.0
0.0 2.02 -30.0
3.0 1.94 -30.0
6.0 1.9 -30.0
9.0 1.86 -30.0
12.0 1.82 -30.0
15.0 1.79 -30.0
18.0 1.83 -30.0
-171.0 7.71 -27.0
-168.0 7.94 -27.0
-165.0 2.92 -27.0
-162.0 2.95 -27.0
-159.0 2.88 -27.0
-156.0 2.72 -27.0
-153.0 2.55 -27.0
-150.0 2.52 -27.0
-147.0 2.59 -27.0
-144.0 2.29 -27.0
-141.0 2.23 -27.0
-138.0 2.26 -27.0
-135.0 1.8 -27.0
-132.0 1.73 -27.0
-129.0 1.83 -27.0
-126.0 1.8 -27.0
-123.0 1.93 -27.0
-120.0 2.03 -27.0
-117.0 1.84 -27.0
-114.0 2.03 -27.0
-111.0 2.0 -27.0
-108.0 2.26 -27.0
-105.0 2.32 -27.0
-102.0 2.23 -27.0
-99.0 2.23 -27.0
-96.0 2.23 -27.0
-93.0 2.32 -27.0
-90.0 2.49 -27.0
-87.0 2.23 -27.0
-84.0 2.52 -27.0
-81.0 2.39 -27.0
-78.0 2.52 -27.0
-75.0 2.39 -27.0
-72.0 2.52 -27.0
-69.0 2.29 -27.0
-66.0 2.49 -27.0
-63.0 2.26 -27.0
-60.0 2.39 -27.0
-57.0 2.26 -27.0
-54.0 2.29 -27.0
-51.0 2.16 -27.0
-48.0 2.16 -27.0
-45.0 2.19 -27.0
-42.0 2.0 -27.0
-39.0 2.13 -27.0
-36.0 2.1 -27.0
-33.0 2.03 -27.0
-30.0 1.93 -27.0
-27.0 2.1 -27.0
-24.0 2.03 -27.0
-21.0 2.08 -27.0
-18.0 2.08 -27.0
-15.0 2.12 -27.0
-12.0 2.12 -27.0
-9.0 2.07 -27.0
-6.0 2.06 -27.0
-3.0 2.01 -27.0
0.0 1.96 -27.0
3.0 1.92 -27.0
6.0 1.87 -27.0
9.0 1.83 -27.0
12.0 1.79 -27.0
15.0 1.76 -27.0
18.0 1.8 -27.0
-171.0 6.59 -24.0
-168.0 6.23 -24.0
-165.0 3.9 -24.0
-162.0 3.21 -24.0
-159.0 2.52 -24.0
-156.0 2.62 -24.0
-153.0 2.69 -24.0
-150.0 2.59 -24.0
-147.0 2.42 -24.0
-144.0 2.42 -24.0
-141.0 2.13 -24.0
-138.0 1.93 -24.0
-135.0 1.96 -24.0
-132.0 1.77 -24.0
-129.0 1.93 -24.0
-126.0 1.8 -24.0
-123.0 1.93 -24.0
-120.0 2.03 -24.0
-117.0 2.06 -24.0
-114.0 1.96 -24.0
-111.0 2.13 -24.0
-108.0 2.19 -24.0
-105.0 2.26 -24.0
-102.0 2.32 -24.0
-99.0 2.26 -24.0
-96.0 2.29 -24.0
-93.0 2.26 -24.0
-90.0 2.39 -24.0
-87.0 2.42 -24.0
-84.0 2.42 -24.0
-81.0 2.52 -24.0
-78.0 2.49 -24.0
-75.0 2.49 -24.0
-72.0 2.46 -24.0
-69.0 2.46 -24.0
-66.0 2.36 -24.0
-63.0 2.42 -24.0
-60.0 2.29 -24.0
-57.0 2.23 -24.0
-54.0 2.23 -24.0
-51.0 2.32 -24.0
-48.0 2.06 -24.0
-45.0 2.16 -24.0
-42.0 2.03 -24.0
-39.0 2.13 -24.0
-36.0 2.16 -24.0
-33.0 2.16 -24.0
-30.0 2.03 -24.0
-27.0 2.23 -24.0
-24.0 2.52 -24.0
-21.0 2.16 -24.0
-18.0 2.0 -24.0
-15.0 2.23 -24.0
-12.0 2.16 -24.0
-9.0 2.02 -24.0
-6.0 2.0 -24.0
-3.0 1.97 -24.0
0.0 1.9 -24.0
3.0 1.83 -24.0
6.0 1.8 -24.0
9.0 1.77 -24.0
12.0 1.74 -24.0
15.0 1.74 -24.0
-171.0 7.05 -21.0
-168.0 5.47 -21.0
-165.0 4.0 -21.0
-162.0 2.92 -21.0
-159.0 2.95 -21.0
-156.0 2.69 -21.0
-153.0 2.42 -21.0
-150.0 2.98 -21.0
-147.0 2.32 -21.0
-144.0 2.13 -21.0
-141.0 2.13 -21.0
-138.0 1.83 -21.0
-135.0 1.73 -21.0
-132.0 1.87 -21.0
-129.0 1.8 -21.0
-126.0 1.83 -21.0
-123.0 1.9 -21.0
-120.0 2.03 -21.0
-117.0 1.93 -21.0
-114.0 1.96 -21.0
-111.0 2.1 -21.0
-108.0 2.1 -21.0
-105.0 2.23 -21.0
-102.0 2.32 -21.0
-99.0 2.26 -21.0
-96.0 2.26 -21.0
-93.0 2.46 -21.0
-90.0 2.55 -21.0
-87.0 2.39 -21.0
-84.0 2.42 -21.0
-81.0 2.42 -21.0
-78.0 3.34 -21.0
-75.0 2.46 -21.0
-72.0 2.39 -21.0
-69.0 2.42 -21.0
-66.0 2.42 -21.0
-63.0 2.36 -21.0
-60.0 2.39 -21.0
-57.0 2.23 -21.0
-54.0 2.69 -21.0
-51.0 2.13 -21.0
-48.0 2.19 -21.0
-45.0 2.13 -21.0
-42.0 2.19 -21.0
-39.0 2.23 -21.0
-36.0 2.16 -21.0
-33.0 2.23 -21.0
-30.0 2.06 -21.0
-27.0 2.13 -21.0
-24.0 2.29 -21.0
-21.0 1.96 -21.0
-18.0 2.16 -21.0
-15.0 1.87 -21.0
-12.0 2.03 -21.0
-9.0 1.8 -21.0
-6.0 2.03 -21.0
-3.0 1.98 -21.0
0.0 1.84 -21.0
3.0 1.73 -21.0
6.0 1.75 -21.0
9.0 1.76 -21.0
12.0 1.77 -21.0
-171.0 4.03 -18.0
-168.0 3.05 -18.0
-165.0 2.92 -18.0
-162.0 2.85 -18.0
-159.0 3.05 -18.0
-156.0 2.65 -18.0
-153.0 2.52 -18.0
-150.0 2.49 -18.0
-147.0 2.29 -18.0
-144.0 2.19 -18.0
-141.0 1.83 -18.0
-138.0 1.7 -18.0
-135.0 1.9 -18.0
-132.0 1.9 -18.0
-129.0 2.03 -18.0
-126.0 1.77 -18.0
-123.0 1.73 -18.0
-120.0 1.93 -18.0
-117.0 1.9 -18.0
-114.0 1.93 -18.0
-111.0 2.13 -18.0
-108.0 2.1 -18.0
-105.0 2.06 -18.0
-102.0 2.26 -18.0
-99.0 2.32 -18.0
-96.0 2.46 -18.0
-93.0 2.78 -18.0
-90.0 2.42 -18.0
-87.0 2.59 -18.0
-84.0 2.49 -18.0
-81.0 2.32 -18.0
-78.0 3.41 -18.0
-75.0 2.36 -18.0
-72.0 2.29 -18.0
-69.0 2.39 -18.0
-66.0 2.36 -18.0
-63.0 2.46 -18.0
-60.0 2.26 -18.0
-57.0 2.46 -18.0
-54.0 2.36 -18.0
-51.0 2.29 -18.0
-48.0 2.19 -18.0
-45.0 2.23 -18.0
-42.0 2.13 -18.0
-39.0 2.29 -18.0
-36.0 2.16 -18.0
-33.0 2.23 -18.0
-30.0 2.13 -18.0
-27.0 2.16 -18.0
-24.0 2.06 -18.0
-21.0 2.03 -18.0
-18.0 2.16 -18.0
-15.0 2.1 -18.0
-12.0 1.87 -18.0
-9.0 2.06 -18.0
-6.0 2.03 -18.0
-3.0 2.23 -18.0
0.0 1.67 -18.0
3.0 1.7 -18.0
6.0 1.75 -18.0
9.0 1.79 -18.0
12.0 1.82 -18.0
-171.0 6.03 -15.0
-168.0 3.21 -15.0
-165.0 3.11 -15.0
-162.0 2.49 -15.0
-159.0 2.65 -15.0
-156.0 2.42 -15.0
-153.0 2.29 -15.0
-150.0 2.36 -15.0
-147.0 2.19 -15.0
-144.0 2.13 -15.0
-141.0 1.96 -15.0
-138.0 1.9 -15.0
-135.0 1.87 -15.0
-132.0 1.77 -15.0
-129.0 1.8 -15.0
-126.0 1.6 -15.0
-123.0 1.7 -15.0
-120.0 1.6 -15.0
-117.0 1.8 -15.0
-114.0 1.96 -15.0
-111.0 2.1 -15.0
-108.0 2.0 -15.0
-105.0 2.06 -15.0
-102.0 2.03 -15.0
-99.0 2.36 -15.0
-96.0 2.46 -15.0
-93.0 2.39 -15.0
-90.0 2.46 -15.0
-87.0 2.55 -15.0
-84.0 2.42 -15.0
-81.0 2.46 -15.0
-78.0 2.36 -15.0
-75.0 2.39 -15.0
-72.0 2.42 -15.0
-69.0 2.52 -15.0
-66.0 2.46 -15.0
-63.0 2.29 -15.0
-60.0 2.15 -15.0
-57.0 2.32 -15.0
-54.0 2.06 -15.0
-51.0 2.23 -15.0
-48.0 2.29 -15.0
-45.0 2.26 -15.0
-42.0 2.23 -15.0
-39.0 2.1 -15.0
-36.0 2.23 -15.0
-33.0 2.16 -15.0
-30.0 2.1 -15.0
-27.0 2.29 -15.0
-24.0 2.16 -15.0
-21.0 2.19 -15.0
-18.0 2.13 -15.0
-15.0 2.03 -15.0
-12.0 2.16 -15.0
-9.0 2.13 -15.0
-6.0 1.8 -15.0
-3.0 2.16 -15.0
0.0 1.64 -15.0
3.0 1.73 -15.0
6.0 1.78 -15.0
9.0 1.84 -15.0
-171.0 3.57 -12.0
-168.0 3.05 -12.0
-165.0 2.75 -12.0
-162.0 2.55 -12.0
-159.0 2.36 -12.0
-156.0 2.42 -12.0
-153.0 2.32 -12.0
-150.0 2.26 -12.0
-147.0 2.06 -12.0
-144.0 2.06 -12.0
-141.0 2.06 -12.0
-138.0 2.03 -12.0
-135.0 1.73 -12.0
-132.0 1.67 -12.0
-129.0 1.73 -12.0
-126.0 1.67 -12.0
-123.0 1.7 -12.0
-120.0 1.8 -12.0
-117.0 1.73 -12.0
-114.0 2.03 -12.0
-111.0 2.16 -12.0
-108.0 2.75 -12.0
-105.0 2.26 -12.0
-102.0 2.23 -12.0
-99.0 2.39 -12.0
-96.0 2.39 -12.0
-93.0 2.49 -12.0
-90.0 2.36 -12.0
-87.0 2.42 -12.0
-84.0 2.49 -12.0
-81.0 2.49 -12.0
-78.0 2.32 -12.0
-75.0 2.49 -12.0
-72.0 2.36 -12.0
-69.0 2.55 -12.0
-66.0 2.46 -12.0
-63.0 2.29 -12.0
-60.0 2.26 -12.0
-57.0 2.16 -12.0
-54.0 2.19 -12.0
-51.0 2.16 -12.0
-48.0 2.26 -12.0
-45.0 2.26 -12.0
-42.0 2.29 -12.0
-39.0 2.16 -12.0
-36.0 2.19 -12.0
-33.0 2.26 -12.0
-30.0 2.06 -12.0
-27.0 1.96 -12.0
-24.0 2.1 -12.0
-21.0 2.1 -12.0
-18.0 2.19 -12.0
-15.0 1.9 -12.0
-12.0 1.96 -12.0
-9.0 2.26 -12.0
-6.0 2.13 -12.0
-3.0 1.96 -12.0
0.0 2.16 -12.0
3.0 1.78 -12.0
6.0 1.77 -12.0
-171.0 3.18 -9.0
-168.0 3.21 -9.0
-165.0 3.24 -9.0
-162.0 2.78 -9.0
-159.0 2.46 -9.0
-156.0 2.39 -9.0
-153.0 2.29 -9.0
-150.0 2.29 -9.0
-147.0 2.19 -9.0
-144.0 2.19 -9.0
-141.0 1.96 -9.0
-138.0 1.96 -9.0
-135.0 1.67 -9.0
-132.0 1.7 -9.0
-129.0 1.77 -9.0
-126.0 1.67 -9.0
-123.0 1.77 -9.0
-120.0 1.73 -9.0
-117.0 1.8 -9.0
-114.0 2.06 -9.0
-111.0 2.13 -9.0
-108.0 2.19 -9.0
-105.0 2.29 -9.0
-102.0 2.23 -9.0
-99.0 2.46 -9.0
-96.0 2.49 -9.0
-93.0 2.49 -9.0
-90.0 2.29 -9.0
-87.0 2.42 -9.0
-84.0 2.49 -9.0
-81.0 2.42 -9.0
-78.0 2.55 -9.0
-75.0 2.39 -9.0
-72.0 2.36 -9.0
-69.0 2.42 -9.0
-66.0 2.42 -9.0
-63.0 2.32 -9.0
-60.0 2.23 -9.0
-57.0 2.23 -9.0
-54.0 2.19 -9.0
-51.0 2.23 -9.0
-48.0 2.19 -9.0
-45.0 2.32 -9.0
-42.0 2.36 -9.0
-39.0 2.29 -9.0
-36.0 2.16 -9.0
-33.0 2.13 -9.0
-30.0 2.06 -9.0
-27.0 2.1 -9.0
-24.0 1.96 -9.0
-21.0 2.13 -9.0
-18.0 2.1 -9.0
-15.0 1.96 -9.0
-12.0 1.87 -9.0
-9.0 2.0 -9.0
-6.0 2.19 -9.0
-3.0 2.16 -9.0
0.0 2.13 -9.0
3.0 1.47 -9.0
6.0 1.82 -9.0
-171.0 2.85 -6.0
-168.0 3.11 -6.0
-165.0 3.08 -6.0
-162.0 2.65 -6.0
-159.0 2.39 -6.0
-156.0 2.23 -6.0
-153.0 2.36 -6.0
-150.0 2.23 -6.0
-147.0 2.19 -6.0
-144.0 2.06 -6.0
-141.0 2.0 -6.0
-138.0 1.9 -6.0
-135.0 2.0 -6.0
-132.0 1.77 -6.0
-129.0 1.77 -6.0
-126.0 1.73 -6.0
-123.0 1.93 -6.0
-120.0 2.16 -6.0
-117.0 2.03 -6.0
-114.0 2.0 -6.0
-111.0 2.0 -6.0
-108.0 2.19 -6.0
-105.0 2.26 -6.0
-102.0 2.49 -6.0
-99.0 2.46 -6.0
-96.0 2.52 -6.0
-93.0 2.49 -6.0
-90.0 2.49 -6.0
-87.0 2.59 -6.0
-84.0 2.36 -6.0
-81.0 2.42 -6.0
-78.0 2.32 -6.0
-75.0 2.42 -6.0
-72.0 2.82 -6.0
-69.0 2.82 -6.0
-66.0 2.98 -6.0
-63.0 2.46 -6.0
-60.0 2.26 -6.0
-57.0 2.29 -6.0
-54.0 2.32 -6.0
-51.0 2.36 -6.0
-48.0 2.29 -6.0
-45.0 2.29 -6.0
-42.0 2.26 -6.0
-39.0 2.16 -6.0
-36.0 2.1 -6.0
-33.0 2.06 -6.0
-30.0 1.96 -6.0
-27.0 2.06 -6.0
-24.0 2.16 -6.0
-21.0 2.03 -6.0
-18.0 2.0 -6.0
-15.0 1.96 -6.0
-12.0 2.03 -6.0
-9.0 1.96 -6.0
-6.0 2.03 -6.0
-3.0 2.06 -6.0
0.0 2.16 -6.0
3.0 1.93 -6.0
-171.0 4.19 -3.0
-168.0 3.7 -3.0
-165.0 3.24 -3.0
-162.0 2.98 -3.0
-159.0 2.39 -3.0
-156.0 2.32 -3.0
-153.0 2.39 -3.0
-150.0 2.19 -3.0
-147.0 2.23 -3.0
-144.0 2.16 -3.0
-141.0 2.29 -3.0
-138.0 1.96 -3.0
-135.0 1.9 -3.0
-132.0 1.9 -3.0
-129.0 1.83 -3.0
-126.0 1.87 -3.0
-123.0 1.9 -3.0
-120.0 2.29 -3.0
-117.0 2.1 -3.0
-114.0 2.0 -3.0
-111.0 1.99 -3.0
-108.0 2.29 -3.0
-105.0 2.46 -3.0
-102.0 2.42 -3.0
-99.0 2.49 -3.0
-96.0 2.52 -3.0
-93.0 2.46 -3.0
-90.0 2.52 -3.0
-87.0 2.59 -3.0
-84.0 2.52 -3.0
-81.0 2.42 -3.0
-78.0 2.39 -3.0
-75.0 2.39 -3.0
-72.0 2.32 -3.0
-69.0 2.82 -3.0
-66.0 4.59 -3.0
-63.0 4.19 -3.0
-60.0 2.55 -3.0
-57.0 2.39 -3.0
-54.0 2.32 -3.0
-51.0 2.29 -3.0
-48.0 2.32 -3.0
-45.0 2.32 -3.0
-42.0 2.36 -3.0
-39.0 2.39 -3.0
-36.0 2.13 -3.0
-33.0 2.1 -3.0
-30.0 1.96 -3.0
-27.0 2.1 -3.0
-24.0 2.13 -3.0
-21.0 2.16 -3.0
-18.0 2.1 -3.0
-15.0 1.93 -3.0
-12.0 2.06 -3.0
-9.0 2.16 -3.0
-6.0 2.0 -3.0
-3.0 2.0 -3.0
0.0 2.03 -3.0
-171.0 3.31 -0.0
-168.0 3.21 -0.0
-165.0 2.72 -0.0
-162.0 2.39 -0.0
-159.0 2.46 -0.0
-156.0 2.55 -0.0
-153.0 2.39 -0.0
-150.0 2.32 -0.0
-147.0 2.19 -0.0
-144.0 2.26 -0.0
-141.0 2.19 -0.0
-138.0 2.03 -0.0
-135.0 2.03 -0.0
-132.0 2.03 -0.0
-129.0 1.8 -0.0
-126.0 1.93 -0.0
-123.0 2.06 -0.0
-120.0 2.1 -0.0
-117.0 2.19 -0.0
-114.0 2.0 -0.0
-111.0 2.06 -0.0
-108.0 2.16 -0.0
-105.0 2.29 -0.0
-102.0 2.39 -0.0
-99.0 2.49 -0.0
-96.0 2.59 -0.0
-93.0 2.39 -0.0
-90.0 2.46 -0.0
-87.0 2.39 -0.0
-84.0 2.92 -0.0
-81.0 2.32 -0.0
-78.0 2.52 -0.0
-75.0 2.55 -0.0
-72.0 2.36 -0.0
-69.0 2.46 -0.0
-66.0 5.18 -0.0
-63.0 2.75 -0.0
-60.0 2.36 -0.0
-57.0 2.46 -0.0
-54.0 2.26 -0.0
-51.0 2.26 -0.0
-48.0 2.52 -0.0
-45.0 3.31 -0.0
-42.0 2.26 -0.0
-39.0 2.19 -0.0
-36.0 2.26 -0.0
-33.0 2.16 -0.0
-30.0 2.36 -0.0
-27.0 2.0 -0.0
-24.0 2.0 -0.0
-21.0 2.16 -0.0
-18.0 2.1 -0.0
-15.0 2.16 -0.0
-12.0 2.0 -0.0
-9.0 2.03 -0.0
-6.0 2.16 -0.0
-3.0 2.1 -0.0
0.0 1.83 -0.0
-171.0 4.19 3.0
-168.0 4.33 3.0
-165.0 4.39 3.0
-162.0 2.46 3.0
-159.0 2.23 3.0
-156.0 2.16 3.0
-153.0 2.19 3.0
-150.0 2.26 3.0
-147.0 2.36 3.0
-144.0 2.1 3.0
-141.0 2.13 3.0
-138.0 2.13 3.0
-135.0 2.1 3.0
-132.0 1.87 3.0
-129.0 1.87 3.0
-126.0 1.83 3.0
-123.0 2.0 3.0
-120.0 2.26 3.0
-117.0 2.16 3.0
-114.0 2.23 3.0
-111.0 2.06 3.0
-108.0 2.16 3.0
-105.0 2.52 3.0
-102.0 2.59 3.0
-99.0 2.36 3.0
-96.0 2.46 3.0
-93.0 2.55 3.0
-90.0 2.55 3.0
-87.0 2.52 3.0
-84.0 2.39 3.0
-81.0 2.62 3.0
-78.0 5.24 3.0
-75.0 2.42 3.0
-72.0 2.32 3.0
-69.0 2.36 3.0
-66.0 2.32 3.0
-63.0 2.32 3.0
-60.0 2.32 3.0
-57.0 2.32 3.0
-54.0 2.32 3.0
-51.0 2.19 3.0
-48.0 2.26 3.0
-45.0 2.13 3.0
-42.0 2.26 3.0
-39.0 2.19 3.0
-36.0 2.19 3.0
-33.0 2.06 3.0
-30.0 2.13 3.0
-27.0 2.1 3.0
-24.0 2.03 3.0
-21.0 2.13 3.0
-18.0 2.13 3.0
-15.0 2.0 3.0
-12.0 2.06 3.0
-9.0 2.0 3.0
-6.0 2.06 3.0
-3.0 2.03 3.0
-171.0 4.26 6.0
-168.0 3.47 6.0
-165.0 3.21 6.0
-162.0 2.46 6.0
-159.0 2.49 6.0
-156.0 5.34 6.0
-153.0 4.62 6.0
-150.0 2.29 6.0
-147.0 2.23 6.0
-144.0 2.13 6.0
-141.0 2.32 6.0
-138.0 1.96 6.0
-135.0 2.0 6.0
-132.0 1.96 6.0
-129.0 1.7 6.0
-126.0 1.83 6.0
-123.0 2.0 6.0
-120.0 2.03 6.0
-117.0 2.06 6.0
-114.0 2.13 6.0
-111.0 2.06 6.0
-108.0 2.16 6.0
-105.0 2.42 6.0
-102.0 2.39 6.0
-99.0 2.55 6.0
-96.0 2.49 6.0
-93.0 2.52 6.0
-90.0 2.55 6.0
-87.0 2.69 6.0
-84.0 2.49 6.0
-81.0 2.42 6.0
-78.0 3.37 6.0
-75.0 2.36 6.0
-72.0 2.85 6.0
-69.0 2.42 6.0
-66.0 4.33 6.0
-63.0 3.93 6.0
-60.0 3.24 6.0
-57.0 3.44 6.0
-54.0 2.23 6.0
-51.0 2.23 6.0
-48.0 2.29 6.0
-45.0 2.29 6.0
-42.0 2.16 6.0
-39.0 2.26 6.0
-36.0 2.23 6.0
-33.0 2.29 6.0
-30.0 2.1 6.0
-27.0 2.13 6.0
-24.0 2.03 6.0
-21.0 2.16 6.0
-18.0 2.13 6.0
-15.0 2.13 6.0
-12.0 2.16 6.0
-9.0 2.16 6.0
-6.0 1.9 6.0
-171.0 4.92 9.0
-168.0 2.52 9.0
-165.0 2.49 9.0
-162.0 2.39 9.0
-159.0 2.36 9.0
-156.0 2.42 9.0
-153.0 2.36 9.0
-150.0 2.29 9.0
-147.0 2.1 9.0
-144.0 2.82 9.0
-141.0 2.03 9.0
-138.0 2.0 9.0
-135.0 1.93 9.0
-132.0 1.96 9.0
-129.0 1.87 9.0
-126.0 2.06 9.0
-123.0 2.16 9.0
-120.0 1.93 9.0
-117.0 2.1 9.0
-114.0 2.1 9.0
-111.0 2.19 9.0
-108.0 2.23 9.0
-105.0 2.42 9.0
-102.0 2.55 9.0
-99.0 2.46 9.0
-96.0 2.46 9.0
-93.0 2.59 9.0
-90.0 2.62 9.0
-87.0 2.59 9.0
-84.0 2.88 9.0
-81.0 2.85 9.0
-78.0 2.49 9.0
-75.0 2.42 9.0
-72.0 2.42 9.0
-69.0 2.65 9.0
-66.0 2.95 9.0
-63.0 3.54 9.0
-60.0 3.7 9.0
-57.0 2.65 9.0
-54.0 2.32 9.0
-51.0 2.23 9.0
-48.0 2.23 9.0
-45.0 2.39 9.0
-42.0 2.26 9.0
-39.0 2.23 9.0
-36.0 2.26 9.0
-33.0 2.16 9.0
-30.0 2.13 9.0
-27.0 2.03 9.0
-24.0 2.1 9.0
-21.0 2.19 9.0
-18.0 2.16 9.0
-15.0 2.29 9.0
-12.0 2.23 9.0
-9.0 2.23 9.0
-6.0 1.96 9.0
-171.0 8.59 12.0
-168.0 2.49 12.0
-165.0 2.49 12.0
-162.0 2.52 12.0
-159.0 2.42 12.0
-156.0 2.39 12.0
-153.0 2.95 12.0
-150.0 2.72 12.0
-147.0 2.36 12.0
-144.0 2.19 12.0
-141.0 2.19 12.0
-138.0 2.13 12.0
-135.0 2.06 12.0
-132.0 2.0 12.0
-129.0 1.93 12.0
-126.0 2.1 12.0
-123.0 2.16 12.0
-120.0 2.03 12.0
-117.0 2.06 12.0
-114.0 2.03 12.0
-111.0 2.19 12.0
-108.0 2.36 12.0
-105.0 2.26 12.0
-102.0 2.46 12.0
-99.0 2.52 12.0
-96.0 2.46 12.0
-93.0 2.59 12.0
-90.0 4.92 12.0
-87.0 5.97 12.0
-84.0 7.51 12.0
-81.0 8.76 12.0
-78.0 2.62 12.0
-75.0 2.36 12.0
-72.0 2.39 12.0
-69.0 2.62 12.0
-66.0 2.69 12.0
-63.0 2.62 12.0
-60.0 4.52 12.0
-57.0 2.78 12.0
-54.0 2.29 12.0
-51.0 2.13 12.0
-48.0 2.29 12.0
-45.0 2.23 12.0
-42.0 2.29 12.0
-39.0 2.36 12.0
-36.0 2.16 12.0
-33.0 2.26 12.0
-30.0 2.13 12.0
-27.0 2.13 12.0
-24.0 2.16 12.0
-21.0 2.19 12.0
-18.0 2.26 12.0
-15.0 2.26 12.0
-12.0 2.23 12.0
-9.0 2.26 12.0
-171.0 2.82 15.0
-168.0 2.59 15.0
-165.0 3.47 15.0
-162.0 2.42 15.0
-159.0 2.69 15.0
-156.0 2.72 15.0
-153.0 5.67 15.0
-150.0 4.19 15.0
-147.0 2.52 15.0
-144.0 2.32 15.0
-141.0 2.19 15.0
-138.0 2.06 15.0
-135.0 2.16 15.0
-132.0 1.93 15.0
-129.0 2.03 15.0
-126.0 2.1 15.0
-123.0 1.96 15.0
-120.0 2.06 15.0
-117.0 2.03 15.0
-114.0 1.96 15.0
-111.0 2.23 15.0
-108.0 2.29 15.0
-105.0 2.29 15.0
-102.0 2.42 15.0
-99.0 2.78 15.0
-96.0 2.36 15.0
-93.0 2.52 15.0
-90.0 2.55 15.0
-87.0 3.9 15.0
-84.0 7.28 15.0
-81.0 7.84 15.0
-78.0 2.62 15.0
-75.0 2.39 15.0
-72.0 2.46 15.0
-69.0 3.51 15.0
-66.0 2.59 15.0
-63.0 2.52 15.0
-60.0 2.88 15.0
-57.0 2.69 15.0
-54.0 2.32 15.0
-51.0 2.26 15.0
-48.0 2.13 15.0
-45.0 2.29 15.0
-42.0 2.19 15.0
-39.0 2.29 15.0
-36.0 2.06 15.0
-33.0 2.32 15.0
-30.0 2.29 15.0
-27.0 2.1 15.0
-24.0 2.13 15.0
-21.0 2.32 15.0
-18.0 2.23 15.0
-15.0 2.26 15.0
-12.0 2.19 15.0
-171.0 2.72 18.0
-168.0 2.65 18.0
-165.0 2.32 18.0
-162.0 2.39 18.0
-159.0 2.72 18.0
-156.0 3.37 18.0
-153.0 4.46 18.0
-150.0 3.21 18.0
-147.0 2.75 18.0
-144.0 2.42 18.0
-141.0 2.16 18.0
-138.0 2.13 18.0
-135.0 2.23 18.0
-132.0 2.0 18.0
-129.0 2.06 18.0
-126.0 2.06 18.0
-123.0 2.13 18.0
-120.0 2.1 18.0
-117.0 2.1 18.0
-114.0 2.1 18.0
-111.0 2.16 18.0
-108.0 2.36 18.0
-105.0 2.16 18.0
-102.0 2.32 18.0
-99.0 4.85 18.0
-96.0 3.83 18.0
-93.0 2.32 18.0
-90.0 2.49 18.0
-87.0 2.49 18.0
-84.0 4.88 18.0
-81.0 7.64 18.0
-78.0 3.21 18.0
-75.0 2.46 18.0
-72.0 3.54 18.0
-69.0 5.21 18.0
-66.0 2.62 18.0
-63.0 2.46 18.0
-60.0 2.46 18.0
-57.0 2.36 18.0
-54.0 2.26 18.0
-51.0 2.16 18.0
-48.0 2.23 18.0
-45.0 2.26 18.0
-42.0 2.29 18.0
-39.0 2.16 18.0
-36.0 2.32 18.0
-33.0 2.23 18.0
-30.0 2.29 18.0
-27.0 2.13 18.0
-24.0 2.13 18.0
-21.0 2.26 18.0
-18.0 2.29 18.0
-15.0 2.32 18.0
-12.0 2.29 18.0
-171.0 2.59 21.0
-168.0 6.95 21.0
-165.0 6.59 21.0
-162.0 2.43 21.0
-159.0 3.14 21.0
-156.0 2.95 21.0
-153.0 2.85 21.0
-150.0 2.39 21.0
-147.0 2.0 21.0
-144.0 2.19 21.0
-141.0 2.39 21.0
-138.0 3.01 21.0
-135.0 6.75 21.0
-132.0 2.98 21.0
-129.0 2.06 21.0
-126.0 2.88 21.0
-123.0 1.96 21.0
-120.0 2.0 21.0
-117.0 1.83 21.0
-114.0 2.06 21.0
-111.0 1.91 21.0
-108.0 2.0 21.0
-105.0 2.19 21.0
-102.0 2.72 21.0
-99.0 4.16 21.0
-96.0 4.03 21.0
-93.0 2.52 21.0
-90.0 2.42 21.0
-87.0 2.46 21.0
-84.0 2.62 21.0
-81.0 2.92 21.0
-78.0 2.36 21.0
-75.0 2.42 21.0
-72.0 2.55 21.0
-69.0 2.52 21.0
-66.0 3.21 21.0
-63.0 2.39 21.0
-60.0 2.62 21.0
-57.0 2.32 21.0
-54.0 2.39 21.0
-51.0 2.46 21.0
-48.0 2.13 21.0
-45.0 2.23 21.0
-42.0 2.19 21.0
-39.0 2.16 21.0
-36.0 2.26 21.0
-33.0 2.19 21.0
-30.0 2.23 21.0
-27.0 2.19 21.0
-24.0 2.23 21.0
-21.0 2.36 21.0
-18.0 2.29 21.0
-15.0 2.36 21.0
-171.0 2.59 24.0
-168.0 9.77 24.0
-165.0 12.56 24.0
-162.0 10.82 24.0
-159.0 6.33 24.0
-156.0 3.14 24.0
-153.0 1.96 24.0
-150.0 1.37 24.0
-147.0 1.34 24.0
-144.0 1.93 24.0
-141.0 2.69 24.0
-138.0 3.05 24.0
-135.0 7.08 24.0
-132.0 6.66 24.0
-129.0 6.43 24.0
-126.0 1.96 24.0
-123.0 2.03 24.0
-120.0 2.03 24.0
-117.0 2.16 24.0
-114.0 2.1 24.0
-111.0 2.13 24.0
-108.0 2.03 24.0
-105.0 2.36 24.0
-102.0 2.26 24.0
-99.0 2.36 24.0
-96.0 2.42 24.0
-93.0 2.52 24.0
-90.0 2.46 24.0
-87.0 2.42 24.0
-84.0 2.39 24.0
-81.0 2.42 24.0
-78.0 2.42 24.0
-75.0 2.32 24.0
-72.0 2.42 24.0
-69.0 2.85 24.0
-66.0 4.69 24.0
-63.0 2.59 24.0
-60.0 2.32 24.0
-57.0 2.39 24.0
-54.0 2.36 24.0
-51.0 3.01 24.0
-48.0 2.23 24.0
-45.0 2.19 24.0
-42.0 2.23 24.0
-39.0 2.16 24.0
-36.0 2.19 24.0
-33.0 2.19 24.0
-30.0 2.26 24.0
-27.0 2.13 24.0
-24.0 2.19 24.0
-21.0 2.13 24.0
-18.0 2.19 24.0
-171.0 8.43 27.0
-168.0 9.71 27.0
-165.0 10.92 27.0
-162.0 10.36 27.0
-159.0 9.9 27.0
-156.0 6.79 27.0
-153.0 2.06 27.0
-150.0 0.62 27.0
-147.0 0.78 27.0
-144.0 2.46 27.0
-141.0 3.05 27.0
-138.0 3.44 27.0
-135.0 2.95 27.0
-132.0 3.05 27.0
-129.0 2.23 27.0
-126.0 2.06 27.0
-123.0 1.9 27.0
-120.0 1.96 27.0
-117.0 2.19 27.0
-114.0 2.13 27.0
-111.0 2.1 27.0
-108.0 2.16 27.0
-105.0 2.16 27.0
-102.0 2.36 27.0
-99.0 2.32 27.0
-96.0 2.19 27.0
-93.0 2.32 27.0
-90.0 2.36 27.0
-87.0 2.49 27.0
-84.0 2.46 27.0
-81.0 2.39 27.0
-78.0 2.29 27.0
-75.0 2.36 27.0
-72.0 2.39 27.0
-69.0 2.52 27.0
-66.0 2.42 27.0
-63.0 2.36 27.0
-60.0 2.52 27.0
-57.0 2.17 27.0
-54.0 2.39 27.0
-51.0 2.16 27.0
-48.0 2.36 27.0
-45.0 2.19 27.0
-42.0 2.23 27.0
-39.0 2.19 27.0
-36.0 2.23 27.0
-33.0 2.26 27.0
-30.0 2.16 27.0
-27.0 2.16 27.0
-24.0 2.23 27.0
-21.0 2.32 27.0
-18.0 2.19 27.0
-171.0 12.0 30.0
-168.0 11.71 30.0
-165.0 12.04 30.0
-162.0 9.08 30.0
-159.0 8.56 30.0
-156.0 6.95 30.0
-153.0 7.71 30.0
-150.0 0.03 30.0
-147.0 1.93 30.0
-144.0 2.52 30.0
-141.0 4.52 30.0
-138.0 3.21 30.0
-135.0 2.49 30.0
-132.0 2.23 30.0
-129.0 2.1 30.0
-126.0 2.03 30.0
-123.0 1.9 30.0
-120.0 2.1 30.0
-117.0 2.75 30.0
-114.0 2.19 30.0
-111.0 2.26 30.0
-108.0 2.23 30.0
-105.0 2.13 30.0
-102.0 2.36 30.0
-99.0 2.19 30.0
-96.0 2.26 30.0
-93.0 2.19 30.0
-90.0 2.39 30.0
-87.0 2.46 30.0
-84.0 2.49 30.0
-81.0 2.42 30.0
-78.0 2.42 30.0
-75.0 2.42 30.0
-72.0 2.52 30.0
-69.0 2.52 30.0
-66.0 2.62 30.0
-63.0 2.55 30.0
-60.0 2.29 30.0
-57.0 2.42 30.0
-54.0 2.26 30.0
-51.0 2.26 30.0
-48.0 2.19 30.0
-45.0 2.29 30.0
-42.0 2.16 30.0
-39.0 2.36 30.0
-36.0 2.16 30.0
-33.0 2.23 30.0
-30.0 2.23 30.0
-27.0 3.05 30.0
-24.0 2.19 30.0
-21.0 2.26 30.0
-171.0 12.59 33.0
-168.0 12.99 33.0
-165.0 11.64 33.0
-162.0 7.9 33.0
-159.0 9.35 33.0
-156.0 8.62 33.0
-153.0 7.05 33.0
-150.0 0.0 33.0
-147.0 2.26 33.0
-144.0 2.42 33.0
-141.0 3.67 33.0
-138.0 2.42 33.0
-135.0 2.75 33.0
-132.0 2.23 33.0
-129.0 2.13 33.0
-126.0 1.93 33.0
-123.0 1.93 33.0
-120.0 2.16 33.0
-117.0 2.16 33.0
-114.0 2.16 33.0
-111.0 2.16 33.0
-108.0 2.13 33.0
-105.0 2.23 33.0
-102.0 2.32 33.0
-99.0 2.29 33.0
-96.0 2.19 33.0
-93.0 2.29 33.0
-90.0 2.29 33.0
-87.0 2.29 33.0
-84.0 2.49 33.0
-81.0 2.62 33.0
-78.0 2.42 33.0
-75.0 2.46 33.0
-72.0 2.55 33.0
-69.0 2.62 33.0
-66.0 2.65 33.0
-63.0 2.59 33.0
-60.0 2.42 33.0
-57.0 2.39 33.0
-54.0 2.36 33.0
-51.0 2.26 33.0
-48.0 2.32 33.0
-45.0 2.19 33.0
-42.0 2.32 33.0
-39.0 2.19 33.0
-36.0 2.26 33.0
-33.0 2.1 33.0
-30.0 2.19 33.0
-27.0 2.13 33.0
-24.0 2.29 33.0
-171.0 7.08 36.0
-168.0 7.9 36.0
-165.0 10.92 36.0
-162.0 11.31 36.0
-159.0 11.51 36.0
-156.0 8.53 36.0
-153.0 6.66 36.0
-150.0 10.2 36.0
-147.0 10.4 36.0
-144.0 2.1 36.0
-141.0 2.39 36.0
-138.0 2.23 36.0
-135.0 2.29 36.0
-132.0 2.16 36.0
-129.0 2.03 36.0
-126.0 1.93 36.0
-123.0 2.0 36.0
-120.0 2.1 36.0
-117.0 2.13 36.0
-114.0 2.13 36.0
-111.0 2.23 36.0
-108.0 2.16 36.0
-105.0 2.26 36.0
-102.0 2.42 36.0
-99.0 2.42 36.0
-96.0 2.23 36.0
-93.0 2.26 36.0
-90.0 2.52 36.0
-87.0 2.23 36.0
-84.0 2.42 36.0
-81.0 2.65 36.0
-78.0 2.32 36.0
-75.0 2.46 36.0
-72.0 2.49 36.0
-69.0 2.42 36.0
-66.0 2.82 36.0
-63.0 2.49 36.0
-60.0 2.49 36.0
-57.0 2.32 36.0
-54.0 2.26 36.0
-51.0 2.23 36.0
-48.0 2.36 36.0
-45.0 2.19 36.0
-42.0 2.26 36.0
-39.0 2.36 36.0
-36.0 2.16 36.0
-33.0 2.23 36.0
-30.0 2.06 36.0
-27.0 2.23 36.0
-24.0 2.13 36.0
-171.0 9.81 39.0
-168.0 9.74 39.0
-165.0 11.28 39.0
-162.0 10.56 39.0
-159.0 11.15 39.0
-156.0 12.46 39.0
-153.0 6.23 39.0
-150.0 10.79 39.0
-147.0 10.66 39.0
-144.0 5.77 39.0
-141.0 1.6 39.0
-138.0 2.26 39.0
-135.0 2.26 39.0
-132.0 2.19 39.0
-129.0 2.06 39.0
-126.0 2.0 39.0
-123.0 1.96 39.0
-120.0 2.13 39.0
-117.0 2.16 39.0
-114.0 2.06 39.0
-111.0 2.13 39.0
-108.0 2.13 39.0
-105.0 2.39 39.0
-102.0 2.42 39.0
-99.0 2.36 39.0
-96.0 2.23 39.0
-93.0 2.29 39.0
-90.0 2.42 39.0
-87.0 2.42 39.0
-84.0 2.32 39.0
-81.0 2.39 39.0
-78.0 2.46 39.0
-75.0 2.49 39.0
-72.0 2.49 39.0
-69.0 2.49 39.0
-66.0 2.55 39.0
-63.0 2.59 39.0
-60.0 2.49 39.0
-57.0 2.52 39.0
-54.0 2.29 39.0
-51.0 2.32 39.0
-48.0 2.16 39.0
-45.0 2.26 39.0
-42.0 2.06 39.0
-39.0 2.19 39.0
-36.0 2.29 39.0
-33.0 2.16 39.0
-30.0 2.18 39.0
-27.0 2.23 39.0
-171.0 10.07 42.0
-168.0 11.28 42.0
-165.0 11.84 42.0
-162.0 10.59 42.0
-159.0 9.97 42.0
-156.0 9.9 42.0
-153.0 6.39 42.0
-150.0 9.54 42.0
-147.0 5.97 42.0
-144.0 5.31 42.0
-141.0 1.67 42.0
-138.0 0.42 42.0
-135.0 2.06 42.0
-132.0 2.06 42.0
-129.0 2.1 42.0
-126.0 1.9 42.0
-123.0 1.96 42.0
-120.0 2.03 42.0
-117.0 2.23 42.0
-114.0 2.26 42.0
-111.0 2.19 42.0
-108.0 2.19 42.0
-105.0 2.46 42.0
-102.0 2.46 42.0
-99.0 2.32 42.0
-96.0 2.36 42.0
-93.0 2.26 42.0
-90.0 2.46 42.0
-87.0 2.36 42.0
-84.0 2.49 42.0
-81.0 2.39 42.0
-78.0 2.62 42.0
-75.0 2.62 42.0
-72.0 2.55 42.0
-69.0 2.42 42.0
-66.0 2.46 42.0
-63.0 2.59 42.0
-60.0 2.52 42.0
-57.0 2.39 42.0
-54.0 3.08 42.0
-51.0 2.82 42.0
-48.0 2.36 42.0
-45.0 2.23 42.0
-42.0 2.23 42.0
-39.0 2.19 42.0
-36.0 2.29 42.0
-33.0 2.16 42.0
-30.0 2.29 42.0
-171.0 9.08 45.0
-168.0 9.74 45.0
-165.0 11.77 45.0
-162.0 10.43 45.0
-159.0 9.81 45.0
-156.0 9.38 45.0
-153.0 4.03 45.0
-150.0 7.54 45.0
-147.0 8.0 45.0
-144.0 8.3 45.0
-141.0 9.25 45.0
-138.0 1.83 45.0
-135.0 0.75 45.0
-132.0 1.83 45.0
-129.0 2.23 45.0
-126.0 1.96 45.0
-123.0 1.96 45.0
-120.0 2.16 45.0
-117.0 2.16 45.0
-114.0 2.19 45.0
-111.0 2.13 45.0
-108.0 2.26 45.0
-105.0 2.75 45.0
-102.0 2.42 45.0
-99.0 2.55 45.0
-96.0 2.36 45.0
-93.0 2.42 45.0
-90.0 2.65 45.0
-87.0 2.39 45.0
-84.0 2.39 45.0
-81.0 2.52 45.0
-78.0 2.65 45.0
-75.0 2.55 45.0
-72.0 2.65 45.0
-69.0 2.59 45.0
-66.0 2.69 45.0
-63.0 2.52 45.0
-60.0 2.52 45.0
-57.0 2.36 45.0
-54.0 2.46 45.0
-51.0 2.26 45.0
-48.0 2.26 45.0
-45.0 2.13 45.0
-42.0 2.23 45.0
-39.0 2.36 45.0
-36.0 2.23 45.0
-33.0 2.23 45.0
-30.0 2.06 45.0
-171.0 9.77 48.0
-168.0 9.05 48.0
-165.0 8.46 48.0
-162.0 7.57 48.0
-159.0 8.2 48.0
-156.0 4.95 48.0
-153.0 5.54 48.0
-150.0 6.49 48.0
-147.0 5.11 48.0
-144.0 12.3 48.0
-141.0 12.89 48.0
-138.0 8.33 48.0
-135.0 8.26 48.0
-132.0 7.87 48.0
-129.0 7.64 48.0
-126.0 1.8 48.0
-123.0 2.03 48.0
-120.0 2.1 48.0
-117.0 2.16 48.0
-114.0 2.16 48.0
-111.0 2.26 48.0
-108.0 2.29 48.0
-105.0 2.42 48.0
-102.0 2.46 48.0
-99.0 2.49 48.0
-96.0 2.39 48.0
-93.0 2.39 48.0
-90.0 2.39 48.0
-87.0 2.42 48.0
-84.0 2.59 48.0
-81.0 2.52 48.0
-78.0 2.82 48.0
-75.0 2.52 48.0
-72.0 2.46 48.0
-69.0 2.59 48.0
-66.0 2.52 48.0
-63.0 2.62 48.0
-60.0 2.46 48.0
-57.0 2.39 48.0
-54.0 2.32 48.0
-51.0 2.26 48.0
-48.0 2.26 48.0
-45.0 2.19 48.0
-42.0 2.19 48.0
-39.0 2.29 48.0
-36.0 2.19 48.0
-33.0 2.16 48.0
-171.0 8.89 51.0
-168.0 8.26 51.0
-165.0 8.23 51.0
-162.0 9.84 51.0
-159.0 8.2 51.0
-156.0 8.13 51.0
-153.0 5.8 51.0
-150.0 6.36 51.0
-147.0 5.93 51.0
-144.0 6.82 51.0
-141.0 5.7 51.0
-138.0 9.28 51.0
-135.0 7.9 51.0
-132.0 8.89 51.0
-129.0 8.82 51.0
-126.0 7.31 51.0
-123.0 1.93 51.0
-120.0 2.19 51.0
-117.0 2.06 51.0
-114.0 2.19 51.0
-111.0 2.29 51.0
-108.0 2.36 51.0
-105.0 2.46 51.0
-102.0 2.69 51.0
-99.0 2.52 51.0
-96.0 2.59 51.0
-93.0 2.39 51.0
-90.0 2.39 51.0
-87.0 2.46 51.0
-84.0 2.52 51.0
-81.0 2.59 51.0
-78.0 2.52 51.0
-75.0 2.55 51.0
-72.0 2.55 51.0
-69.0 2.69 51.0
-66.0 2.55 51.0
-63.0 2.42 51.0
-60.0 2.55 51.0
-57.0 2.39 51.0
-54.0 2.36 51.0
-51.0 2.19 51.0
-48.0 2.32 51.0
-45.0 2.19 51.0
-42.0 3.18 51.0
-39.0 2.16 51.0
-36.0 2.16 51.0
-171.0 6.85 54.0
-168.0 7.97 54.0
-165.0 8.0 54.0
-162.0 5.38 54.0
-159.0 7.48 54.0
-156.0 5.28 54.0
-153.0 7.51 54.0
-150.0 5.02 54.0
-147.0 5.18 54.0
-144.0 3.6 54.0
-141.0 6.43 54.0
-138.0 6.49 54.0
-135.0 9.48 54.0
-132.0 10.3 54.0
-129.0 11.22 54.0
-126.0 8.66 54.0
-123.0 8.36 54.0
-120.0 7.87 54.0
-117.0 2.0 54.0
-114.0 2.26 54.0
-111.0 2.16 54.0
-108.0 2.36 54.0
-105.0 6.46 54.0
-102.0 4.75 54.0
-99.0 2.52 54.0
-96.0 2.55 54.0
-93.0 2.39 54.0
-90.0 2.36 54.0
-87.0 2.52 54.0
-84.0 2.49 54.0
-81.0 2.62 54.0
-78.0 2.55 54.0
-75.0 2.62 54.0
-72.0 2.69 54.0
-69.0 2.55 54.0
-66.0 2.65 54.0
-63.0 2.69 54.0
-60.0 2.52 54.0
-57.0 2.46 54.0
-54.0 2.23 54.0
-51.0 2.26 54.0
-48.0 2.29 54.0
-45.0 2.03 54.0
-42.0 2.06 54.0
-39.0 2.19 54.0
-36.0 1.96 54.0
-171.0 4.69 57.0
-168.0 7.48 57.0
-165.0 7.21 57.0
-162.0 5.93 57.0
-159.0 5.11 57.0
-156.0 4.03 57.0
-153.0 2.82 57.0
-150.0 2.29 57.0
-147.0 2.26 57.0
-144.0 3.14 57.0
-141.0 6.13 57.0
-138.0 10.49 57.0
-135.0 11.02 57.0
-132.0 9.61 57.0
-129.0 10.72 57.0
-126.0 8.2 57.0
-123.0 11.35 57.0
-120.0 7.15 57.0
-117.0 2.1 57.0
-114.0 2.06 57.0
-111.0 2.19 57.0
-108.0 2.23 57.0
-105.0 6.26 57.0
-102.0 2.65 57.0
-99.0 2.46 57.0
-96.0 2.46 57.0
-93.0 2.42 57.0
-90.0 2.39 57.0
-87.0 2.49 57.0
-84.0 2.69 57.0
-81.0 2.55 57.0
-78.0 2.52 57.0
-75.0 2.55 57.0
-72.0 2.72 57.0
-69.0 2.59 57.0
-66.0 2.59 57.0
-63.0 2.55 57.0
-60.0 2.46 57.0
-57.0 2.49 57.0
-54.0 2.42 57.0
-51.0 2.23 57.0
-48.0 2.23 57.0
-45.0 2.13 57.0
-42.0 2.1 57.0
-39.0 2.03 57.0
-171.0 2.42 60.0
-168.0 5.08 60.0
-165.0 6.52 60.0
-162.0 6.29 60.0
-159.0 6.72 60.0
-156.0 2.49 60.0
-153.0 2.62 60.0
-150.0 2.32 60.0
-147.0 2.32 60.0
-144.0 2.36 60.0
-141.0 4.39 60.0
-138.0 3.64 60.0
-135.0 8.92 60.0
-132.0 9.44 60.0
-129.0 10.43 60.0
-126.0 10.3 60.0
-123.0 10.46 60.0
-120.0 9.9 60.0
-117.0 5.67 60.0
-114.0 4.13 60.0
-111.0 2.06 60.0
-108.0 2.26 60.0
-105.0 2.55 60.0
-102.0 2.55 60.0
-99.0 2.59 60.0
-96.0 2.49 60.0
-93.0 2.42 60.0
-90.0 2.49 60.0
-87.0 3.31 60.0
-84.0 2.52 60.0
-81.0 2.65 60.0
-78.0 2.52 60.0
-75.0 2.59 60.0
-72.0 2.52 60.0
-69.0 2.62 60.0
-66.0 2.59 60.0
-63.0 2.55 60.0
-60.0 2.69 60.0
-57.0 2.49 60.0
-54.0 3.93 60.0
-51.0 2.13 60.0
-48.0 2.23 60.0
-45.0 2.82 60.0
-42.0 2.06 60.0
-171.0 2.92 63.0
-168.0 2.85 63.0
-165.0 7.54 63.0
-162.0 7.84 63.0
-159.0 7.05 63.0
-156.0 4.03 63.0
-153.0 2.39 63.0
-150.0 2.29 63.0
-147.0 2.26 63.0
-144.0 2.29 63.0
-141.0 2.23 63.0
-138.0 2.55 63.0
-135.0 3.41 63.0
-132.0 3.47 63.0
-129.0 9.25 63.0
-126.0 8.92 63.0
-123.0 10.59 63.0
-120.0 8.39 63.0
-117.0 4.56 63.0
-114.0 1.47 63.0
-111.0 1.24 63.0
-108.0 2.36 63.0
-105.0 2.46 63.0
-102.0 2.52 63.0
-99.0 2.42 63.0
-96.0 2.49 63.0
-93.0 2.49 63.0
-90.0 2.49 63.0
-87.0 2.49 63.0
-84.0 2.46 63.0
-81.0 2.49 63.0
-78.0 2.49 63.0
-75.0 2.59 63.0
-72.0 2.65 63.0
-69.0 2.55 63.0
-66.0 2.69 63.0
-63.0 2.69 63.0
-60.0 2.52 63.0
-57.0 2.46 63.0
-54.0 2.36 63.0
-51.0 2.26 63.0
-48.0 2.16 63.0
-45.0 2.16 63.0
-42.0 2.19 63.0
-171.0 3.24 66.0
-168.0 4.52 66.0
-165.0 3.21 66.0
-162.0 7.67 66.0
-159.0 5.61 66.0
-156.0 5.57 66.0
-153.0 2.46 66.0
-150.0 2.29 66.0
-147.0 2.16 66.0
-144.0 2.23 66.0
-141.0 2.26 66.0
-138.0 2.23 66.0
-135.0 2.42 66.0
-132.0 3.28 66.0
-129.0 11.97 66.0
-126.0 9.9 66.0
-123.0 3.87 66.0
-120.0 4.0 66.0
-117.0 5.57 66.0
-114.0 7.74 66.0
-111.0 6.95 66.0
-108.0 6.66 66.0
-105.0 2.23 66.0
-102.0 2.52 66.0
-99.0 2.52 66.0
-96.0 2.59 66.0
-93.0 2.42 66.0
-90.0 2.49 66.0
-87.0 2.49 66.0
-84.0 2.59 66.0
-81.0 2.49 66.0
-78.0 3.24 66.0
-75.0 2.65 66.0
-72.0 2.72 66.0
-69.0 2.55 66.0
-66.0 4.92 66.0
-63.0 4.98 66.0
-60.0 2.42 66.0
-57.0 2.42 66.0
-54.0 2.55 66.0
-51.0 2.16 66.0
-48.0 2.16 66.0
-45.0 2.03 66.0
-171.0 4.72 69.0
-168.0 5.77 69.0
-165.0 2.55 69.0
-162.0 3.6 69.0
-159.0 7.9 69.0
-156.0 7.8 69.0
-153.0 2.42 69.0
-150.0 2.29 69.0
-147.0 2.26 69.0
-144.0 2.23 69.0
-141.0 2.29 69.0
-138.0 2.23 69.0
-135.0 2.36 69.0
-132.0 2.49 69.0
-129.0 7.15 69.0
-126.0 7.84 69.0
-123.0 5.18 69.0
-120.0 7.9 69.0
-117.0 3.8 69.0
-114.0 8.59 69.0
-111.0 8.59 69.0
-108.0 6.13 69.0
-105.0 5.4 69.0
-102.0 5.97 69.0
-99.0 6.56 69.0
-96.0 2.42 69.0
-93.0 2.46 69.0
-90.0 2.49 69.0
-87.0 2.59 69.0
-84.0 2.49 69.0
-81.0 2.55 69.0
-78.0 2.62 69.0
-75.0 2.52 69.0
-72.0 2.69 69.0
-69.0 2.65 69.0
-66.0 2.59 69.0
-63.0 2.52 69.0
-60.0 2.39 69.0
-57.0 2.42 69.0
-54.0 2.29 69.0
-51.0 2.06 69.0
-48.0 2.03 69.0
-171.0 7.87 72.0
-168.0 7.31 72.0
-165.0 4.69 72.0
-162.0 2.82 72.0
-159.0 3.83 72.0
-156.0 2.55 72.0
-153.0 2.36 72.0
-150.0 2.29 72.0
-147.0 2.26 72.0
-144.0 2.82 72.0
-141.0 2.26 72.0
-138.0 2.29 72.0
-135.0 2.23 72.0
-132.0 2.36 72.0
-129.0 2.26 72.0
-126.0 2.52 72.0
-123.0 2.49 72.0
-120.0 3.24 72.0
-117.0 4.62 72.0
-114.0 7.11 72.0
-111.0 10.4 72.0
-108.0 6.46 72.0
-105.0 6.75 72.0
-102.0 6.82 72.0
-99.0 6.85 72.0
-96.0 2.52 72.0
-93.0 2.46 72.0
-90.0 2.46 72.0
-87.0 2.46 72.0
-84.0 2.59 72.0
-81.0 2.52 72.0
-78.0 2.52 72.0
-75.0 2.52 72.0
-72.0 2.52 72.0
-69.0 2.46 72.0
-66.0 2.46 72.0
-63.0 2.49 72.0
-60.0 2.39 72.0
-57.0 2.49 72.0
-54.0 2.13 72.0
-51.0 2.13 72.0
-171.0 7.48 75.0
-168.0 7.31 75.0
-165.0 5.61 75.0
-162.0 2.82 75.0
-159.0 2.29 75.0
-156.0 2.39 75.0
-153.0 2.32 75.0
-150.0 2.32 75.0
-147.0 2.16 75.0
-144.0 2.19 75.0
-141.0 2.29 75.0
-138.0 2.26 75.0
-135.0 2.32 75.0
-132.0 2.26 75.0
-129.0 2.39 75.0
-126.0 2.23 75.0
-123.0 2.46 75.0
-120.0 2.59 75.0
-117.0 3.57 75.0
-114.0 6.06 75.0
-111.0 4.82 75.0
-108.0 4.33 75.0
-105.0 3.44 75.0
-102.0 2.06 75.0
-99.0 6.26 75.0
-96.0 5.9 75.0
-93.0 6.52 75.0
-90.0 5.9 75.0
-87.0 2.49 75.0
-84.0 2.52 75.0
-81.0 2.46 75.0
-78.0 2.46 75.0
-75.0 2.49 75.0
-72.0 2.39 75.0
-69.0 2.42 75.0
-66.0 2.55 75.0
-63.0 2.36 75.0
-60.0 2.36 75.0
-57.0 2.26 75.0
-54.0 2.19 75.0
-51.0 2.06 75.0
-171.0 8.62 78.0
-168.0 8.16 78.0
-165.0 10.36 78.0
-162.0 2.85 78.0
-159.0 2.59 78.0
-156.0 2.39 78.0
-153.0 2.16 78.0
-150.0 2.26 78.0
-147.0 2.36 78.0
-144.0 2.26 78.0
-141.0 2.32 78.0
-138.0 2.32 78.0
-135.0 2.26 78.0
-132.0 2.32 78.0
-129.0 2.19 78.0
-126.0 2.29 78.0
-123.0 2.46 78.0
-120.0 2.42 78.0
-117.0 3.6 78.0
-114.0 4.46 78.0
-111.0 5.11 78.0
-108.0 6.56 78.0
-105.0 5.84 78.0
-102.0 4.46 78.0
-99.0 5.34 78.0
-96.0 7.67 78.0
-93.0 9.48 78.0
-90.0 3.93 78.0
-87.0 2.46 78.0
-84.0 2.49 78.0
-81.0 2.52 78.0
-78.0 2.49 78.0
-75.0 2.36 78.0
-72.0 2.42 78.0
-69.0 2.39 78.0
-66.0 2.46 78.0
-63.0 2.39 78.0
-60.0 2.32 78.0
-57.0 2.36 78.0
-54.0 2.1 78.0
-171.0 8.56 81.0
-168.0 8.79 81.0
-165.0 9.94 81.0
-162.0 7.54 81.0
-159.0 6.95 81.0
-156.0 2.98 81.0
-153.0 2.82 81.0
-150.0 2.26 81.0
-147.0 2.19 81.0
-144.0 2.29 81.0
-141.0 2.29 81.0
-138.0 2.39 81.0
-135.0 2.39 81.0
-132.0 2.36 81.0
-129.0 2.26 81.0
-126.0 2.19 81.0
-123.0 2.29 81.0
-120.0 2.36 81.0
-117.0 3.24 81.0
-114.0 4.13 81.0
-111.0 2.75 81.0
-108.0 3.41 81.0
-105.0 9.35 81.0
-102.0 3.64 81.0
-99.0 9.64 81.0
-96.0 10.76 81.0
-93.0 6.85 81.0
-90.0 9.58 81.0
-87.0 2.42 81.0
-84.0 2.62 81.0
-81.0 2.42 81.0
-78.0 2.39 81.0
-75.0 2.29 81.0
-72.0 2.32 81.0
-69.0 2.46 81.0
-66.0 2.32 81.0
-63.0 2.23 81.0
-60.0 2.26 81.0
-57.0 2.39 81.0
-171.0 7.71 84.0
-168.0 7.87 84.0
-165.0 6.89 84.0
-162.0 11.41 84.0
-159.0 10.85 84.0
-156.0 8.89 84.0
-153.0 7.34 84.0
-150.0 6.52 84.0
-147.0 3.01 84.0
-144.0 2.23 84.0
-141.0 2.29 84.0
-138.0 2.29 84.0
-135.0 2.29 84.0
-132.0 2.32 84.0
-129.0 2.19 84.0
-126.0 2.19 84.0
-123.0 2.23 84.0
-120.0 2.36 84.0
-117.0 2.16 84.0
-114.0 2.19 84.0
-111.0 2.39 84.0
-108.0 5.02 84.0
-105.0 4.0 84.0
-102.0 8.3 84.0
-99.0 9.15 84.0
-96.0 14.43 84.0
-93.0 8.79 84.0
-90.0 7.74 84.0
-87.0 1.02 84.0
-84.0 2.06 84.0
-81.0 2.46 84.0
-78.0 2.23 84.0
-75.0 2.39 84.0
-72.0 2.36 84.0
-69.0 2.19 84.0
-66.0 2.32 84.0
-63.0 2.32 84.0
-60.0 2.29 84.0
-57.0 2.23 84.0
-171.0 0.95 87.0
-168.0 8.2 87.0
-165.0 9.84 87.0
-162.0 10.46 87.0
-159.0 11.54 87.0
-156.0 10.95 87.0
-153.0 8.49 87.0
-150.0 9.71 87.0
-147.0 6.23 87.0
-144.0 2.36 87.0
-141.0 2.26 87.0
-138.0 2.29 87.0
-135.0 2.26 87.0
-132.0 2.39 87.0
-129.0 2.16 87.0
-126.0 2.39 87.0
-123.0 2.26 87.0
-120.0 2.23 87.0
-117.0 2.19 87.0
-114.0 2.29 87.0
-111.0 2.26 87.0
-108.0 5.41 87.0
-105.0 3.05 87.0
-102.0 8.36 87.0
-99.0 8.33 87.0
-96.0 9.02 87.0
-93.0 9.18 87.0
-90.0 8.92 87.0
-87.0 1.73 87.0
-84.0 0.91 87.0
-81.0 2.03 87.0
-78.0 2.29 87.0
-75.0 2.29 87.0
-72.0 2.29 87.0
-69.0 2.19 87.0
-66.0 2.23 87.0
-63.0 2.23 87.0
-60.0 2.29 87.0
-171.0 1.38 90.0
-168.0 14.99 90.0
-165.0 10.72 90.0
-162.0 11.12 90.0
-159.0 9.05 90.0
-156.0 11.77 90.0
-153.0 10.23 90.0
-150.0 9.44 90.0
-147.0 7.41 90.0
-144.0 2.32 90.0
-141.0 2.26 90.0
-138.0 2.19 90.0
-135.0 2.42 90.0
-132.0 2.32 90.0
-129.0 2.29 90.0
-126.0 2.19 90.0
-123.0 2.29 90.0
-120.0 2.19 90.0
-117.0 2.16 90.0
-114.0 2.29 90.0
-111.0 2.16 90.0
-108.0 2.32 90.0
-105.0 2.49 90.0
-102.0 2.72 90.0
-99.0 3.18 90.0
-96.0 9.54 90.0
-93.0 8.3 90.0
-90.0 7.61 90.0
-87.0 6.16 90.0
-84.0 5.41 90.0
-81.0 0.91 90.0
-78.0 1.44 90.0
-75.0 2.06 90.0
-72.0 2.19 90.0
-69.0 2.16 90.0
-66.0 2.19 90.0
-63.0 2.36 90.0
-171.0 2.65 93.0
-168.0 6.13 93.0
-165.0 10.46 93.0
-162.0 8.72 93.0
-159.0 8.49 93.0
-156.0 6.79 93.0
-153.0 9.21 93.0
-150.0 6.16 93.0
-147.0 3.24 93.0
-144.0 2.62 93.0
-141.0 2.19 93.0
-138.0 2.32 93.0
-135.0 2.32 93.0
-132.0 2.26 93.0
-129.0 2.29 93.0
-126.0 2.59 93.0
-123.0 2.23 93.0
-120.0 2.23 93.0
-117.0 2.23 93.0
-114.0 2.26 93.0
-111.0 2.26 93.0
-108.0 2.39 93.0
-105.0 2.42 93.0
-102.0 2.55 93.0
-99.0 2.42 93.0
-96.0 2.85 93.0
-93.0 4.72 93.0
-90.0 4.62 93.0
-87.0 7.08 93.0
-84.0 3.08 93.0
-81.0 8.53 93.0
-78.0 1.37 93.0
-75.0 1.93 93.0
-72.0 1.93 93.0
-69.0 2.23 93.0
-66.0 2.29 93.0
-63.0 2.29 93.0
-171.0 2.49 96.0
-168.0 2.29 96.0
-165.0 2.32 96.0
-162.0 7.9 96.0
-159.0 9.25 96.0
-156.0 10.66 96.0
-153.0 12.33 96.0
-150.0 3.9 96.0
-147.0 3.74 96.0
-144.0 3.74 96.0
-141.0 3.11 96.0
-138.0 2.26 96.0
-135.0 2.36 96.0
-132.0 2.32 96.0
-129.0 2.26 96.0
-126.0 2.39 96.0
-123.0 2.19 96.0
-120.0 2.16 96.0
-117.0 2.13 96.0
-114.0 2.13 96.0
-111.0 2.16 96.0
-108.0 2.23 96.0
-105.0 2.42 96.0
-102.0 2.39 96.0
-99.0 2.42 96.0
-96.0 2.46 96.0
-93.0 2.49 96.0
-90.0 2.92 96.0
-87.0 3.41 96.0
-84.0 8.16 96.0
-81.0 7.34 96.0
-78.0 6.75 96.0
-75.0 6.85 96.0
-72.0 1.01 96.0
-69.0 2.1 96.0
-66.0 2.26 96.0
-171.0 2.36 99.0
-168.0 2.52 99.0
-165.0 2.26 99.0
-162.0 2.29 99.0
-159.0 11.38 99.0
-156.0 10.1 99.0
-153.0 11.71 99.0
-150.0 3.14 99.0
-147.0 3.37 99.0
-144.0 3.01 99.0
-141.0 2.52 99.0
-138.0 2.19 99.0
-135.0 2.46 99.0
-132.0 2.26 99.0
-129.0 3.05 99.0
-126.0 2.16 99.0
-123.0 2.19 99.0
-120.0 2.13 99.0
-117.0 2.19 99.0
-114.0 2.19 99.0
-111.0 2.26 99.0
-108.0 2.32 99.0
-105.0 2.26 99.0
-102.0 2.39 99.0
-99.0 2.36 99.0
-96.0 2.26 99.0
-93.0 2.32 99.0
-90.0 2.49 99.0
-87.0 3.08 99.0
-84.0 6.89 99.0
-81.0 7.54 99.0
-78.0 5.97 99.0
-75.0 4.46 99.0
-72.0 1.04 99.0
-69.0 1.5 99.0
-171.0 2.59 102.0
-168.0 2.39 102.0
-165.0 2.39 102.0
-162.0 2.23 102.0
-159.0 2.26 102.0
-156.0 1.77 102.0
-153.0 1.57 102.0
-150.0 2.16 102.0
-147.0 2.78 102.0
-144.0 2.75 102.0
-141.0 2.29 102.0
-138.0 2.23 102.0
-135.0 2.26 102.0
-132.0 2.16 102.0
-129.0 2.36 102.0
-126.0 2.23 102.0
-123.0 2.23 102.0
-120.0 2.19 102.0
-117.0 2.19 102.0
-114.0 2.16 102.0
-111.0 2.16 102.0
-108.0 2.23 102.0
-105.0 2.23 102.0
-102.0 2.29 102.0
-99.0 2.32 102.0
-96.0 2.23 102.0
-93.0 2.16 102.0
-90.0 2.26 102.0
-87.0 2.75 102.0
-84.0 6.98 102.0
-81.0 5.08 102.0
-78.0 6.2 102.0
-75.0 4.03 102.0
-72.0 2.92 102.0
-69.0 1.8 102.0
-171.0 2.42 105.0
-168.0 2.36 105.0
-165.0 2.39 105.0
-162.0 2.29 105.0
-159.0 2.19 105.0
-156.0 2.32 105.0
-153.0 2.13 105.0
-150.0 1.93 105.0
-147.0 2.29 105.0
-144.0 2.36 105.0
-141.0 2.42 105.0
-138.0 2.32 105.0
-135.0 2.23 105.0
-132.0 2.42 105.0
-129.0 2.26 105.0
-126.0 2.23 105.0
-123.0 2.19 105.0
-120.0 2.1 105.0
-117.0 2.13 105.0
-114.0 2.13 105.0
-111.0 2.23 105.0
-108.0 2.16 105.0
-105.0 2.23 105.0
-102.0 2.23 105.0
-99.0 2.42 105.0
-96.0 2.16 105.0
-93.0 2.13 105.0
-90.0 2.23 105.0
-87.0 2.39 105.0
-84.0 2.62 105.0
-81.0 2.69 105.0
-78.0 3.05 105.0
-75.0 3.41 105.0
-72.0 3.18 105.0
-171.0 2.39 108.0
-168.0 2.32 108.0
-165.0 2.36 108.0
-162.0 2.19 108.0
-159.0 2.29 108.0
-156.0 2.19 108.0
-153.0 2.23 108.0
-150.0 2.23 108.0
-147.0 2.26 108.0
-144.0 2.16 108.0
-141.0 2.32 108.0
-138.0 2.16 108.0
-135.0 2.29 108.0
-132.0 2.26 108.0
-129.0 2.59 108.0
-126.0 2.26 108.0
-123.0 2.26 108.0
-120.0 2.26 108.0
-117.0 2.13 108.0
-114.0 2.19 108.0
-111.0 2.06 108.0
-108.0 2.23 108.0
-105.0 2.16 108.0
-102.0 2.23 108.0
-99.0 2.19 108.0
-96.0 2.16 108.0
-93.0 2.16 108.0
-90.0 2.26 108.0
-87.0 2.36 108.0
-84.0 2.32 108.0
-81.0 2.62 108.0
-78.0 2.65 108.0
-75.0 3.08 108.0
-171.0 2.49 111.0
-168.0 2.36 111.0
-165.0 2.36 111.0
-162.0 2.19 111.0
-159.0 2.29 111.0
-156.0 2.29 111.0
-153.0 2.16 111.0
-150.0 2.19 111.0
-147.0 2.26 111.0
-144.0 2.19 111.0
-141.0 2.06 111.0
-138.0 2.29 111.0
-135.0 2.23 111.0
-132.0 2.36 111.0
-129.0 2.46 111.0
-126.0 2.16 111.0
-123.0 2.23 111.0
-120.0 2.26 111.0
-117.0 2.16 111.0
-114.0 2.16 111.0
-111.0 2.16 111.0
-108.0 2.19 111.0
-105.0 2.16 111.0
-102.0 2.23 111.0
-99.0 2.29 111.0
-96.0 2.1 111.0
-93.0 2.13 111.0
-90.0 2.13 111.0
-87.0 2.23 111.0
-84.0 2.49 111.0
-81.0 2.29 111.0
-78.0 2.42 111.0
-75.0 2.75 111.0
-171.0 2.39 114.0
-168.0 2.39 114.0
-165.0 2.29 114.0
-162.0 2.26 114.0
-159.0 2.29 114.0
-156.0 2.36 114.0
-153.0 3.14 114.0
-150.0 2.23 114.0
-147.0 2.19 114.0
-144.0 2.19 114.0
-141.0 2.16 114.0
-138.0 2.26 114.0
-135.0 2.26 114.0
-132.0 2.26 114.0
-129.0 2.23 114.0
-126.0 2.16 114.0
-123.0 2.19 114.0
-120.0 2.13 114.0
-117.0 2.19 114.0
-114.0 2.13 114.0
-111.0 2.19 114.0
-108.0 2.13 114.0
-105.0 2.16 114.0
-102.0 2.16 114.0
-99.0 2.06 114.0
-96.0 2.1 114.0
-93.0 2.06 114.0
-90.0 2.19 114.0
-87.0 2.26 114.0
-84.0 2.26 114.0
-81.0 2.39 114.0
-78.0 2.19 114.0
-171.0 3.9 117.0
-168.0 2.36 117.0
-165.0 2.36 117.0
-162.0 2.13 117.0
-159.0 2.72 117.0
-156.0 2.19 117.0
-153.0 2.32 117.0
-150.0 2.16 117.0
-147.0 2.29 117.0
-144.0 2.42 117.0
-141.0 2.19 117.0
-138.0 2.36 117.0
-135.0 2.26 117.0
