ply
format ascii 1.0
comment Original LiDAR: USGS National Dataset
comment Cropped and converted to PLY by CloudCompare v2.11 alpha (Anoia)
comment Converted from original position to centered position by Chris Calef.
element vertex 2499
property float x
property float y
property float z
end_header
-393.0 42.88 -309.0
-390.0 45.08 -309.0
-387.0 44.46 -309.0
-384.0 46.95 -309.0
-381.0 48.95 -309.0
-378.0 49.38 -309.0
-375.0 43.83 -309.0
-372.0 47.8 -309.0
-369.0 51.12 -309.0
-366.0 49.58 -309.0
-363.0 46.26 -309.0
-360.0 45.18 -309.0
-357.0 49.22 -309.0
-354.0 49.74 -309.0
-351.0 46.49 -309.0
-348.0 53.41 -309.0
-345.0 50.63 -309.0
-342.0 49.28 -309.0
-339.0 52.33 -309.0
-336.0 51.87 -309.0
-333.0 48.59 -309.0
-330.0 50.2 -309.0
-327.0 47.12 -309.0
-324.0 49.87 -309.0
-321.0 50.43 -309.0
-318.0 52.43 -309.0
-315.0 46.3 -309.0
-312.0 44.92 -309.0
-309.0 25.79 -309.0
-306.0 30.19 -309.0
-303.0 20.74 -309.0
-300.0 15.72 -309.0
-297.0 10.86 -309.0
-399.0 37.37 -306.0
-396.0 39.08 -306.0
-393.0 44.2 -306.0
-390.0 47.67 -306.0
-387.0 46.2 -306.0
-384.0 50.82 -306.0
-381.0 52.43 -306.0
-378.0 48.66 -306.0
-375.0 50.07 -306.0
-372.0 50.79 -306.0
-369.0 56.17 -306.0
-366.0 55.61 -306.0
-363.0 50.89 -306.0
-360.0 44.92 -306.0
-357.0 42.46 -306.0
-354.0 44.85 -306.0
-351.0 46.69 -306.0
-348.0 47.8 -306.0
-345.0 49.38 -306.0
-342.0 44.92 -306.0
-339.0 48.43 -306.0
-336.0 52.3 -306.0
-333.0 48.3 -306.0
-330.0 40.03 -306.0
-327.0 48.26 -306.0
-324.0 49.31 -306.0
-321.0 48.59 -306.0
-318.0 47.9 -306.0
-315.0 41.77 -306.0
-312.0 23.82 -306.0
-309.0 25.66 -306.0
-306.0 26.87 -306.0
-303.0 23.46 -306.0
-300.0 2.36 -306.0
-297.0 9.98 -306.0
-399.0 37.4 -303.0
-396.0 40.46 -303.0
-393.0 43.8 -303.0
-390.0 47.15 -303.0
-387.0 43.8 -303.0
-384.0 51.54 -303.0
-381.0 48.59 -303.0
-378.0 49.41 -303.0
-375.0 51.51 -303.0
-372.0 50.13 -303.0
-369.0 56.14 -303.0
-366.0 54.04 -303.0
-363.0 52.27 -303.0
-360.0 49.05 -303.0
-357.0 47.21 -303.0
-354.0 48.95 -303.0
-351.0 52.73 -303.0
-348.0 49.94 -303.0
-345.0 48.39 -303.0
-342.0 50.76 -303.0
-339.0 44.43 -303.0
-336.0 50.0 -303.0
-333.0 47.38 -303.0
-330.0 47.05 -303.0
-327.0 42.95 -303.0
-324.0 46.56 -303.0
-321.0 48.0 -303.0
-318.0 49.48 -303.0
-315.0 38.81 -303.0
-312.0 37.01 -303.0
-309.0 25.1 -303.0
-306.0 25.07 -303.0
-303.0 8.37 -303.0
-300.0 8.34 -303.0
-399.0 37.21 -300.0
-396.0 54.17 -300.0
-393.0 54.43 -300.0
-390.0 55.88 -300.0
-387.0 55.38 -300.0
-384.0 52.17 -300.0
-381.0 54.99 -300.0
-378.0 44.95 -300.0
-375.0 47.51 -300.0
-372.0 46.79 -300.0
-369.0 49.41 -300.0
-366.0 54.79 -300.0
-363.0 53.87 -300.0
-360.0 49.44 -300.0
-357.0 48.66 -300.0
-354.0 50.86 -300.0
-351.0 53.58 -300.0
-348.0 53.51 -300.0
-345.0 49.87 -300.0
-342.0 49.05 -300.0
-339.0 45.31 -300.0
-336.0 49.61 -300.0
-333.0 49.31 -300.0
-330.0 46.46 -300.0
-327.0 50.04 -300.0
-324.0 46.89 -300.0
-321.0 44.29 -300.0
-318.0 38.45 -300.0
-315.0 35.5 -300.0
-312.0 22.25 -300.0
-309.0 15.75 -300.0
-306.0 23.2 -300.0
-303.0 14.77 -300.0
-300.0 8.83 -300.0
-399.0 32.45 -297.0
-396.0 44.95 -297.0
-393.0 57.61 -297.0
-390.0 59.45 -297.0
-387.0 59.22 -297.0
-384.0 55.81 -297.0
-381.0 53.35 -297.0
-378.0 49.12 -297.0
-375.0 43.74 -297.0
-372.0 43.24 -297.0
-369.0 46.82 -297.0
-366.0 49.77 -297.0
-363.0 46.82 -297.0
-360.0 47.31 -297.0
-357.0 50.76 -297.0
-354.0 48.33 -297.0
-351.0 55.06 -297.0
-348.0 56.01 -297.0
-345.0 57.88 -297.0
-342.0 52.1 -297.0
-339.0 49.28 -297.0
-336.0 48.62 -297.0
-333.0 49.31 -297.0
-330.0 46.95 -297.0
-327.0 49.51 -297.0
-324.0 49.15 -297.0
-321.0 48.03 -297.0
-318.0 44.03 -297.0
-315.0 35.07 -297.0
-312.0 28.19 -297.0
-309.0 22.8 -297.0
-306.0 19.2 -297.0
-303.0 20.38 -297.0
-300.0 18.51 -297.0
-399.0 55.81 -294.0
-396.0 56.3 -294.0
-393.0 58.37 -294.0
-390.0 60.5 -294.0
-387.0 57.61 -294.0
-384.0 58.5 -294.0
-381.0 54.46 -294.0
-378.0 48.79 -294.0
-375.0 42.62 -294.0
-372.0 42.29 -294.0
-369.0 41.31 -294.0
-366.0 40.52 -294.0
-363.0 53.09 -294.0
-360.0 40.03 -294.0
-357.0 49.25 -294.0
-354.0 50.56 -294.0
-351.0 56.37 -294.0
-348.0 58.34 -294.0
-345.0 57.75 -294.0
-342.0 50.36 -294.0
-339.0 50.69 -294.0
-336.0 50.49 -294.0
-333.0 46.82 -294.0
-330.0 45.97 -294.0
-327.0 44.72 -294.0
-324.0 45.57 -294.0
-321.0 47.67 -294.0
-318.0 46.39 -294.0
-315.0 33.73 -294.0
-312.0 31.37 -294.0
-309.0 28.58 -294.0
-306.0 18.67 -294.0
-303.0 18.01 -294.0
-300.0 4.4 -294.0
-399.0 58.43 -291.0
-396.0 60.89 -291.0
-393.0 60.01 -291.0
-390.0 58.96 -291.0
-387.0 58.34 -291.0
-384.0 57.29 -291.0
-381.0 57.32 -291.0
-378.0 59.29 -291.0
-375.0 61.85 -291.0
-372.0 43.93 -291.0
-369.0 43.47 -291.0
-366.0 38.95 -291.0
-363.0 52.59 -291.0
-360.0 55.84 -291.0
-357.0 59.88 -291.0
-354.0 53.58 -291.0
-351.0 51.74 -291.0
-348.0 54.56 -291.0
-345.0 55.65 -291.0
-342.0 51.35 -291.0
-339.0 46.89 -291.0
-336.0 41.83 -291.0
-333.0 44.72 -291.0
-330.0 50.1 -291.0
-327.0 48.53 -291.0
-324.0 43.05 -291.0
-321.0 40.82 -291.0
-318.0 36.98 -291.0
-315.0 36.65 -291.0
-312.0 31.79 -291.0
-309.0 27.73 -291.0
-306.0 22.9 -291.0
-303.0 16.11 -291.0
-300.0 4.79 -291.0
-297.0 1.05 -291.0
-399.0 60.8 -288.0
-396.0 61.49 -288.0
-393.0 59.85 -288.0
-390.0 56.66 -288.0
-387.0 60.7 -288.0
-384.0 64.6 -288.0
-381.0 62.96 -288.0
-378.0 62.9 -288.0
-375.0 59.98 -288.0
-372.0 43.11 -288.0
-369.0 45.05 -288.0
-366.0 58.47 -288.0
-363.0 61.22 -288.0
-360.0 60.47 -288.0
-357.0 60.01 -288.0
-354.0 60.24 -288.0
-351.0 56.1 -288.0
-348.0 48.92 -288.0
-345.0 53.68 -288.0
-342.0 45.57 -288.0
-339.0 47.84 -288.0
-336.0 48.56 -288.0
-333.0 46.56 -288.0
-330.0 49.64 -288.0
-327.0 48.99 -288.0
-324.0 44.16 -288.0
-321.0 39.08 -288.0
-318.0 37.99 -288.0
-315.0 36.58 -288.0
-312.0 31.7 -288.0
-309.0 26.77 -288.0
-306.0 26.22 -288.0
-303.0 7.42 -288.0
-300.0 7.71 -288.0
-399.0 62.08 -285.0
-396.0 60.47 -285.0
-393.0 60.11 -285.0
-390.0 56.79 -285.0
-387.0 65.36 -285.0
-384.0 66.67 -285.0
-381.0 66.77 -285.0
-378.0 67.16 -285.0
-375.0 58.76 -285.0
-372.0 55.71 -285.0
-369.0 52.63 -285.0
-366.0 59.88 -285.0
-363.0 62.24 -285.0
-360.0 63.22 -285.0
-357.0 62.21 -285.0
-354.0 61.75 -285.0
-351.0 56.79 -285.0
-348.0 45.21 -285.0
-345.0 44.56 -285.0
-342.0 46.79 -285.0
-339.0 44.98 -285.0
-336.0 45.28 -285.0
-333.0 43.44 -285.0
-330.0 42.26 -285.0
-327.0 48.76 -285.0
-324.0 48.26 -285.0
-321.0 40.46 -285.0
-318.0 38.95 -285.0
-315.0 43.51 -285.0
-312.0 28.91 -285.0
-309.0 23.07 -285.0
-306.0 4.99 -285.0
-303.0 4.1 -285.0
-300.0 3.71 -285.0
-297.0 1.64 -285.0
-399.0 61.98 -282.0
-396.0 60.17 -282.0
-393.0 56.24 -282.0
-390.0 60.17 -282.0
-387.0 64.8 -282.0
-384.0 67.56 -282.0
-381.0 67.82 -282.0
-378.0 66.7 -282.0
-375.0 65.88 -282.0
-372.0 54.23 -282.0
-369.0 56.24 -282.0
-366.0 61.12 -282.0
-363.0 61.81 -282.0
-360.0 61.65 -282.0
-357.0 63.49 -282.0
-354.0 62.31 -282.0
-351.0 59.12 -282.0
-348.0 53.32 -282.0
-345.0 51.71 -282.0
-342.0 50.72 -282.0
-339.0 49.81 -282.0
-336.0 49.74 -282.0
-333.0 49.08 -282.0
-330.0 49.05 -282.0
-327.0 47.74 -282.0
-324.0 51.31 -282.0
-321.0 44.79 -282.0
-318.0 43.08 -282.0
-315.0 43.83 -282.0
-312.0 28.02 -282.0
-309.0 18.28 -282.0
-306.0 7.61 -282.0
-303.0 11.81 -282.0
-300.0 8.83 -282.0
-297.0 4.37 -282.0
-294.0 2.23 -282.0
-399.0 60.01 -279.0
-396.0 61.42 -279.0
-393.0 61.32 -279.0
-390.0 64.44 -279.0
-387.0 66.83 -279.0
-384.0 66.96 -279.0
-381.0 68.44 -279.0
-378.0 67.95 -279.0
-375.0 65.95 -279.0
-372.0 55.71 -279.0
-369.0 58.43 -279.0
-366.0 59.62 -279.0
-363.0 58.04 -279.0
-360.0 61.42 -279.0
-357.0 62.63 -279.0
-354.0 61.42 -279.0
-351.0 61.22 -279.0
-348.0 53.35 -279.0
-345.0 51.97 -279.0
-342.0 53.32 -279.0
-339.0 51.48 -279.0
-336.0 52.14 -279.0
-333.0 47.15 -279.0
-330.0 53.02 -279.0
-327.0 53.71 -279.0
-324.0 49.9 -279.0
-321.0 44.0 -279.0
-318.0 47.25 -279.0
-315.0 44.95 -279.0
-312.0 24.05 -279.0
-309.0 18.9 -279.0
-306.0 12.96 -279.0
-303.0 15.03 -279.0
-300.0 9.32 -279.0
-297.0 5.42 -279.0
-294.0 2.07 -279.0
-399.0 53.02 -276.0
-396.0 58.53 -276.0
-393.0 58.57 -276.0
-390.0 65.62 -276.0
-387.0 67.98 -276.0
-384.0 67.0 -276.0
-381.0 66.9 -276.0
-378.0 65.29 -276.0
-375.0 59.68 -276.0
-372.0 60.8 -276.0
-369.0 61.75 -276.0
-366.0 57.84 -276.0
-363.0 61.39 -276.0
-360.0 61.16 -276.0
-357.0 62.67 -276.0
-354.0 63.72 -276.0
-351.0 60.73 -276.0
-348.0 56.83 -276.0
-345.0 53.74 -276.0
-342.0 55.25 -276.0
-339.0 55.58 -276.0
-336.0 53.71 -276.0
-333.0 52.1 -276.0
-330.0 50.56 -276.0
-327.0 52.3 -276.0
-324.0 52.5 -276.0
-321.0 45.74 -276.0
-318.0 48.0 -276.0
-315.0 48.49 -276.0
-312.0 36.55 -276.0
-309.0 13.75 -276.0
-306.0 9.12 -276.0
-303.0 9.81 -276.0
-300.0 5.51 -276.0
-297.0 3.28 -276.0
-294.0 2.99 -276.0
-399.0 60.99 -273.0
-396.0 52.92 -273.0
-393.0 56.24 -273.0
-390.0 62.31 -273.0
-387.0 66.73 -273.0
-384.0 66.08 -273.0
-381.0 66.14 -273.0
-378.0 59.88 -273.0
-375.0 60.86 -273.0
-372.0 62.63 -273.0
-369.0 60.4 -273.0
-366.0 59.48 -273.0
-363.0 59.85 -273.0
-360.0 61.55 -273.0
-357.0 63.59 -273.0
-354.0 62.47 -273.0
-351.0 62.9 -273.0
-348.0 60.37 -273.0
-345.0 59.45 -273.0
-342.0 56.93 -273.0
-339.0 57.81 -273.0
-336.0 54.5 -273.0
-333.0 52.56 -273.0
-330.0 47.12 -273.0
-327.0 50.07 -273.0
-324.0 51.45 -273.0
-321.0 44.69 -273.0
-318.0 46.16 -273.0
-315.0 38.62 -273.0
-312.0 39.01 -273.0
-309.0 3.41 -273.0
-306.0 6.66 -273.0
-303.0 10.76 -273.0
-300.0 8.17 -273.0
-297.0 8.14 -273.0
-294.0 2.5 -273.0
-399.0 60.04 -270.0
-396.0 51.64 -270.0
-393.0 54.92 -270.0
-390.0 60.57 -270.0
-387.0 64.24 -270.0
-384.0 62.57 -270.0
-381.0 64.31 -270.0
-378.0 63.45 -270.0
-375.0 65.91 -270.0
-372.0 62.44 -270.0
-369.0 64.24 -270.0
-366.0 60.34 -270.0
-363.0 57.52 -270.0
-360.0 62.01 -270.0
-357.0 61.81 -270.0
-354.0 60.63 -270.0
-351.0 60.63 -270.0
-348.0 59.62 -270.0
-345.0 59.88 -270.0
-342.0 59.75 -270.0
-339.0 57.88 -270.0
-336.0 56.07 -270.0
-333.0 55.12 -270.0
-330.0 51.64 -270.0
-327.0 48.89 -270.0
-324.0 44.92 -270.0
-321.0 43.54 -270.0
-318.0 42.59 -270.0
-315.0 37.47 -270.0
-312.0 27.27 -270.0
-309.0 37.31 -270.0
-306.0 30.81 -270.0
-303.0 10.04 -270.0
-300.0 9.48 -270.0
-297.0 5.88 -270.0
-294.0 2.43 -270.0
-399.0 54.4 -267.0
-396.0 53.48 -267.0
-393.0 58.57 -267.0
-390.0 60.83 -267.0
-387.0 58.53 -267.0
-384.0 62.31 -267.0
-381.0 59.81 -267.0
-378.0 60.3 -267.0
-375.0 64.54 -267.0
-372.0 65.06 -267.0
-369.0 64.93 -267.0
-366.0 59.91 -267.0
-363.0 60.3 -267.0
-360.0 63.72 -267.0
-357.0 62.27 -267.0
-354.0 58.8 -267.0
-351.0 59.39 -267.0
-348.0 61.39 -267.0
-345.0 61.45 -267.0
-342.0 59.58 -267.0
-339.0 57.42 -267.0
-336.0 55.55 -267.0
-333.0 55.94 -267.0
-330.0 49.02 -267.0
-327.0 56.79 -267.0
-324.0 46.2 -267.0
-321.0 38.62 -267.0
-318.0 35.99 -267.0
-315.0 43.41 -267.0
-312.0 54.3 -267.0
-309.0 40.82 -267.0
-306.0 34.58 -267.0
-303.0 28.94 -267.0
-300.0 8.83 -267.0
-297.0 5.81 -267.0
-399.0 54.89 -264.0
-393.0 59.16 -264.0
-390.0 53.94 -264.0
-387.0 59.65 -264.0
-384.0 56.2 -264.0
-381.0 57.61 -264.0
-378.0 63.68 -264.0
-375.0 65.0 -264.0
-372.0 66.21 -264.0
-369.0 58.96 -264.0
-366.0 63.36 -264.0
-363.0 64.9 -264.0
-360.0 64.34 -264.0
-357.0 63.19 -264.0
-354.0 58.2 -264.0
-351.0 59.02 -264.0
-348.0 61.65 -264.0
-345.0 58.14 -264.0
-342.0 56.24 -264.0
-339.0 55.65 -264.0
-336.0 55.38 -264.0
-333.0 60.37 -264.0
-330.0 58.17 -264.0
-327.0 57.58 -264.0
-324.0 53.84 -264.0
-321.0 37.34 -264.0
-318.0 52.04 -264.0
-315.0 56.53 -264.0
-312.0 53.84 -264.0
-309.0 41.87 -264.0
-306.0 50.23 -264.0
-303.0 28.02 -264.0
-300.0 17.85 -264.0
-297.0 1.25 -264.0
-294.0 0.72 -264.0
-399.0 50.1 -261.0
-396.0 50.0 -261.0
-393.0 59.75 -261.0
-390.0 61.94 -261.0
-387.0 62.5 -261.0
-384.0 63.26 -261.0
-381.0 62.37 -261.0
-378.0 56.2 -261.0
-375.0 64.6 -261.0
-372.0 61.62 -261.0
-369.0 63.09 -261.0
-366.0 62.24 -261.0
-363.0 65.75 -261.0
-360.0 65.23 -261.0
-357.0 64.83 -261.0
-354.0 61.45 -261.0
-351.0 63.52 -261.0
-348.0 54.89 -261.0
-345.0 56.89 -261.0
-342.0 60.21 -261.0
-339.0 60.27 -261.0
-336.0 56.79 -261.0
-333.0 59.58 -261.0
-330.0 58.83 -261.0
-327.0 59.35 -261.0
-324.0 59.85 -261.0
-321.0 54.5 -261.0
-318.0 55.19 -261.0
-315.0 59.35 -261.0
-312.0 56.3 -261.0
-309.0 57.06 -261.0
-306.0 54.3 -261.0
-303.0 50.33 -261.0
-300.0 40.42 -261.0
-297.0 8.7 -261.0
-399.0 54.86 -258.0
-396.0 52.96 -258.0
-393.0 61.03 -258.0
-390.0 62.96 -258.0
-387.0 64.6 -258.0
-384.0 65.26 -258.0
-381.0 62.7 -258.0
-378.0 59.52 -258.0
-375.0 59.74 -258.0
-372.0 54.69 -258.0
-369.0 63.03 -258.0
-366.0 64.18 -258.0
-363.0 63.45 -258.0
-360.0 65.42 -258.0
-357.0 62.77 -258.0
-354.0 63.22 -258.0
-351.0 62.86 -258.0
-348.0 60.7 -258.0
-345.0 57.45 -258.0
-342.0 60.07 -258.0
-339.0 59.78 -258.0
-336.0 57.84 -258.0
-333.0 61.55 -258.0
-330.0 62.04 -258.0
-327.0 59.52 -258.0
-324.0 59.45 -258.0
-321.0 54.5 -258.0
-318.0 59.22 -258.0
-315.0 62.08 -258.0
-312.0 60.37 -258.0
-309.0 58.01 -258.0
-306.0 54.1 -258.0
-303.0 51.77 -258.0
-300.0 41.11 -258.0
-297.0 12.57 -258.0
-399.0 55.61 -255.0
-396.0 54.53 -255.0
-393.0 61.78 -255.0
-390.0 61.58 -255.0
-387.0 64.83 -255.0
-384.0 65.55 -255.0
-381.0 64.64 -255.0
-378.0 58.5 -255.0
-375.0 61.06 -255.0
-372.0 60.63 -255.0
-369.0 61.19 -255.0
-366.0 58.17 -255.0
-363.0 63.85 -255.0
-360.0 62.01 -255.0
-357.0 63.42 -255.0
-354.0 63.42 -255.0
-351.0 64.5 -255.0
-348.0 59.32 -255.0
-345.0 56.01 -255.0
-342.0 54.46 -255.0
-339.0 58.86 -255.0
-336.0 58.7 -255.0
-333.0 61.19 -255.0
-330.0 61.49 -255.0
-327.0 60.96 -255.0
-324.0 54.3 -255.0
-321.0 56.93 -255.0
-318.0 62.57 -255.0
-315.0 60.86 -255.0
-312.0 61.78 -255.0
-309.0 56.27 -255.0
-306.0 55.55 -255.0
-303.0 48.82 -255.0
-300.0 37.63 -255.0
-399.0 56.5 -252.0
-396.0 54.46 -252.0
-393.0 58.04 -252.0
-390.0 62.08 -252.0
-387.0 64.34 -252.0
-384.0 65.62 -252.0
-381.0 62.8 -252.0
-378.0 62.8 -252.0
-375.0 63.39 -252.0
-372.0 58.53 -252.0
-369.0 54.46 -252.0
-366.0 59.52 -252.0
-363.0 58.83 -252.0
-360.0 59.06 -252.0
-357.0 61.62 -252.0
-354.0 62.34 -252.0
-351.0 60.37 -252.0
-348.0 57.22 -252.0
-345.0 58.37 -252.0
-342.0 55.78 -252.0
-339.0 59.42 -252.0
-336.0 60.76 -252.0
-333.0 55.58 -252.0
-330.0 59.48 -252.0
-327.0 59.32 -252.0
-324.0 59.06 -252.0
-321.0 51.81 -252.0
-318.0 57.81 -252.0
-315.0 58.63 -252.0
-312.0 58.47 -252.0
-309.0 51.77 -252.0
-306.0 51.81 -252.0
-303.0 49.64 -252.0
-300.0 35.63 -252.0
-297.0 2.46 -252.0
-399.0 52.63 -249.0
-396.0 53.02 -249.0
-393.0 57.65 -249.0
-390.0 54.86 -249.0
-387.0 64.04 -249.0
-384.0 62.8 -249.0
-381.0 63.59 -249.0
-378.0 64.21 -249.0
-375.0 63.03 -249.0
-372.0 56.83 -249.0
-369.0 62.63 -249.0
-366.0 62.83 -249.0
-363.0 60.44 -249.0
-360.0 61.16 -249.0
-357.0 61.81 -249.0
-354.0 62.73 -249.0
-351.0 62.77 -249.0
-348.0 57.06 -249.0
-345.0 60.5 -249.0
-342.0 57.75 -249.0
-339.0 56.37 -249.0
-336.0 59.98 -249.0
-333.0 51.97 -249.0
-330.0 58.47 -249.0
-327.0 59.39 -249.0
-324.0 60.76 -249.0
-321.0 52.23 -249.0
-318.0 53.05 -249.0
-315.0 54.01 -249.0
-312.0 51.58 -249.0
-309.0 52.3 -249.0
-306.0 52.0 -249.0
-303.0 42.95 -249.0
-300.0 43.01 -249.0
-297.0 1.61 -249.0
-399.0 57.75 -246.0
-396.0 56.83 -246.0
-393.0 59.58 -246.0
-390.0 53.71 -246.0
-387.0 59.58 -246.0
-384.0 61.62 -246.0
-381.0 56.04 -246.0
-378.0 63.45 -246.0
-375.0 59.39 -246.0
-372.0 58.04 -246.0
-369.0 63.52 -246.0
-366.0 64.96 -246.0
-363.0 54.27 -246.0
-360.0 59.94 -246.0
-357.0 62.83 -246.0
-354.0 61.29 -246.0
-351.0 60.34 -246.0
-348.0 58.24 -246.0
-345.0 59.91 -246.0
-342.0 57.78 -246.0
-339.0 59.65 -246.0
-336.0 60.93 -246.0
-333.0 59.71 -246.0
-330.0 57.22 -246.0
-327.0 59.02 -246.0
-324.0 58.04 -246.0
-321.0 49.18 -246.0
-318.0 50.95 -246.0
-315.0 50.92 -246.0
-312.0 52.86 -246.0
-309.0 48.07 -246.0
-306.0 43.77 -246.0
-303.0 37.99 -246.0
-300.0 16.67 -246.0
-399.0 55.15 -243.0
-396.0 58.17 -243.0
-393.0 52.36 -243.0
-390.0 64.5 -243.0
-387.0 67.19 -243.0
-384.0 65.42 -243.0
-381.0 57.35 -243.0
-378.0 57.61 -243.0
-375.0 61.91 -243.0
-372.0 62.96 -243.0
-369.0 63.88 -243.0
-366.0 64.14 -243.0
-363.0 57.88 -243.0
-360.0 58.96 -243.0
-357.0 60.34 -243.0
-354.0 61.65 -243.0
-351.0 58.99 -243.0
-348.0 58.57 -243.0
-345.0 56.96 -243.0
-342.0 56.14 -243.0
-339.0 58.83 -243.0
-336.0 60.27 -243.0
-333.0 58.6 -243.0
-330.0 58.01 -243.0
-327.0 52.69 -243.0
-324.0 50.82 -243.0
-321.0 54.2 -243.0
-318.0 52.23 -243.0
-315.0 43.01 -243.0
-312.0 43.97 -243.0
-309.0 45.74 -243.0
-306.0 26.31 -243.0
-303.0 19.46 -243.0
-300.0 18.08 -243.0
-297.0 14.8 -243.0
-399.0 55.81 -240.0
-396.0 56.53 -240.0
-393.0 55.78 -240.0
-390.0 65.78 -240.0
-387.0 67.36 -240.0
-384.0 66.83 -240.0
-381.0 63.68 -240.0
-378.0 65.75 -240.0
-375.0 40.19 -240.0
-372.0 63.36 -240.0
-369.0 61.52 -240.0
-366.0 63.13 -240.0
-363.0 57.12 -240.0
-360.0 58.76 -240.0
-357.0 59.42 -240.0
-354.0 61.72 -240.0
-351.0 61.29 -240.0
-348.0 57.09 -240.0
-345.0 58.63 -240.0
-342.0 56.07 -240.0
-339.0 58.27 -240.0
-336.0 55.48 -240.0
-333.0 56.24 -240.0
-330.0 55.22 -240.0
-327.0 54.66 -240.0
-324.0 53.78 -240.0
-321.0 54.46 -240.0
-318.0 52.73 -240.0
-315.0 44.2 -240.0
-312.0 38.13 -240.0
-309.0 37.96 -240.0
-306.0 43.93 -240.0
-303.0 15.06 -240.0
-300.0 16.47 -240.0
-297.0 14.21 -240.0
-399.0 43.97 -237.0
-396.0 59.55 -237.0
-393.0 62.14 -237.0
-390.0 65.69 -237.0
-387.0 64.7 -237.0
-384.0 64.14 -237.0
-381.0 63.95 -237.0
-378.0 64.54 -237.0
-375.0 63.39 -237.0
-372.0 57.81 -237.0
-369.0 60.24 -237.0
-366.0 57.91 -237.0
-363.0 58.2 -237.0
-360.0 55.58 -237.0
-357.0 60.24 -237.0
-354.0 59.91 -237.0
-351.0 56.1 -237.0
-348.0 51.97 -237.0
-345.0 55.22 -237.0
-342.0 54.46 -237.0
-339.0 51.41 -237.0
-336.0 55.06 -237.0
-333.0 51.15 -237.0
-330.0 54.04 -237.0
-327.0 53.74 -237.0
-324.0 51.64 -237.0
-321.0 51.61 -237.0
-318.0 45.77 -237.0
-315.0 45.05 -237.0
-312.0 44.2 -237.0
-309.0 37.8 -237.0
-306.0 15.52 -237.0
-303.0 12.44 -237.0
-399.0 51.25 -234.0
-396.0 57.58 -234.0
-393.0 62.47 -234.0
-390.0 62.67 -234.0
-387.0 60.57 -234.0
-384.0 63.22 -234.0
-381.0 66.21 -234.0
-378.0 60.83 -234.0
-375.0 62.34 -234.0
-372.0 61.52 -234.0
-369.0 62.6 -234.0
-366.0 60.67 -234.0
-363.0 49.05 -234.0
-360.0 51.09 -234.0
-357.0 51.97 -234.0
-354.0 55.88 -234.0
-351.0 57.12 -234.0
-348.0 52.82 -234.0
-345.0 52.14 -234.0
-342.0 48.89 -234.0
-339.0 52.1 -234.0
-336.0 50.82 -234.0
-333.0 54.2 -234.0
-330.0 53.32 -234.0
-327.0 51.22 -234.0
-324.0 48.2 -234.0
-321.0 48.53 -234.0
-318.0 45.8 -234.0
-315.0 44.52 -234.0
-312.0 41.93 -234.0
-309.0 36.68 -234.0
-306.0 23.07 -234.0
-399.0 56.1 -231.0
-396.0 55.42 -231.0
-393.0 62.86 -231.0
-390.0 62.96 -231.0
-387.0 64.77 -231.0
-384.0 65.23 -231.0
-381.0 65.91 -231.0
-378.0 59.98 -231.0
-375.0 60.01 -231.0
-372.0 62.7 -231.0
-369.0 60.11 -231.0
-366.0 59.58 -231.0
-363.0 52.33 -231.0
-360.0 49.97 -231.0
-357.0 54.5 -231.0
-354.0 54.14 -231.0
-351.0 51.87 -231.0
-348.0 53.58 -231.0
-345.0 52.23 -231.0
-342.0 45.44 -231.0
-339.0 52.33 -231.0
-336.0 52.2 -231.0
-333.0 55.78 -231.0
-330.0 53.84 -231.0
-327.0 52.17 -231.0
-324.0 50.76 -231.0
-321.0 44.33 -231.0
-318.0 49.61 -231.0
-315.0 48.33 -231.0
-312.0 42.06 -231.0
-309.0 35.7 -231.0
-306.0 26.09 -231.0
-303.0 10.21 -231.0
-399.0 56.43 -228.0
-396.0 58.86 -228.0
-393.0 58.7 -228.0
-390.0 62.99 -228.0
-387.0 64.11 -228.0
-384.0 64.5 -228.0
-381.0 64.47 -228.0
-378.0 59.06 -228.0
-375.0 58.5 -228.0
-372.0 60.14 -228.0
-369.0 59.19 -228.0
-366.0 62.7 -228.0
-363.0 51.71 -228.0
-360.0 49.84 -228.0
-357.0 51.25 -228.0
-354.0 51.84 -228.0
-351.0 52.79 -228.0
-348.0 54.92 -228.0
-345.0 50.95 -228.0
-342.0 44.59 -228.0
-339.0 47.67 -228.0
-336.0 52.07 -228.0
-333.0 52.46 -228.0
-330.0 53.61 -228.0
-327.0 50.4 -228.0
-324.0 50.89 -228.0
-321.0 47.57 -228.0
-318.0 51.81 -228.0
-315.0 49.77 -228.0
-312.0 49.44 -228.0
-309.0 26.22 -228.0
-306.0 22.54 -228.0
-303.0 22.8 -228.0
-399.0 57.22 -225.0
-396.0 56.1 -225.0
-393.0 61.32 -225.0
-390.0 59.85 -225.0
-387.0 62.5 -225.0
-384.0 62.01 -225.0
-381.0 64.08 -225.0
-378.0 54.5 -225.0
-375.0 58.4 -225.0
-372.0 61.91 -225.0
-369.0 60.11 -225.0
-366.0 54.86 -225.0
-363.0 26.22 -225.0
-360.0 49.25 -225.0
-357.0 54.63 -225.0
-354.0 51.81 -225.0
-351.0 57.25 -225.0
-348.0 52.63 -225.0
-345.0 51.38 -225.0
-342.0 50.4 -225.0
-339.0 49.71 -225.0
-336.0 54.17 -225.0
-333.0 54.23 -225.0
-330.0 53.78 -225.0
-327.0 44.56 -225.0
-324.0 47.71 -225.0
-321.0 49.58 -225.0
-318.0 50.63 -225.0
-315.0 50.04 -225.0
-312.0 50.63 -225.0
-309.0 17.36 -225.0
-306.0 16.73 -225.0
-303.0 9.48 -225.0
-399.0 59.09 -222.0
-396.0 57.52 -222.0
-393.0 58.34 -222.0
-390.0 60.53 -222.0
-387.0 58.66 -222.0
-384.0 60.4 -222.0
-381.0 54.89 -222.0
-378.0 52.07 -222.0
-375.0 54.96 -222.0
-372.0 58.63 -222.0
-369.0 57.78 -222.0
-366.0 53.25 -222.0
-363.0 46.07 -222.0
-360.0 48.26 -222.0
-357.0 55.58 -222.0
-354.0 56.37 -222.0
-351.0 53.19 -222.0
-348.0 56.33 -222.0
-345.0 51.87 -222.0
-342.0 51.74 -222.0
-339.0 50.1 -222.0
-336.0 55.15 -222.0
-333.0 54.89 -222.0
-330.0 49.67 -222.0
-327.0 47.44 -222.0
-324.0 48.23 -222.0
-321.0 45.64 -222.0
-318.0 46.59 -222.0
-315.0 44.88 -222.0
-312.0 27.63 -222.0
-309.0 15.55 -222.0
-306.0 17.29 -222.0
-399.0 59.62 -219.0
-396.0 53.61 -219.0
-393.0 58.2 -219.0
-390.0 49.02 -219.0
-387.0 51.09 -219.0
-384.0 54.92 -219.0
-381.0 55.55 -219.0
-378.0 45.05 -219.0
-375.0 50.89 -219.0
-372.0 49.67 -219.0
-369.0 52.46 -219.0
-366.0 52.4 -219.0
-363.0 48.43 -219.0
-360.0 53.94 -219.0
-357.0 53.28 -219.0
-354.0 56.73 -219.0
-351.0 52.43 -219.0
-348.0 56.2 -219.0
-345.0 56.53 -219.0
-342.0 50.0 -219.0
-339.0 45.18 -219.0
-336.0 50.95 -219.0
-333.0 51.18 -219.0
-330.0 47.87 -219.0
-327.0 48.0 -219.0
-324.0 48.03 -219.0
-321.0 38.03 -219.0
-318.0 44.46 -219.0
-315.0 28.12 -219.0
-312.0 30.12 -219.0
-399.0 61.62 -216.0
-396.0 56.04 -216.0
-393.0 66.54 -216.0
-390.0 62.11 -216.0
-387.0 55.35 -216.0
-384.0 56.4 -216.0
-381.0 51.74 -216.0
-378.0 52.46 -216.0
-375.0 42.36 -216.0
-372.0 53.35 -216.0
-369.0 52.92 -216.0
-366.0 45.38 -216.0
-363.0 54.27 -216.0
-360.0 53.19 -216.0
-357.0 51.81 -216.0
-354.0 54.27 -216.0
-351.0 53.51 -216.0
-348.0 54.89 -216.0
-345.0 52.86 -216.0
-342.0 49.28 -216.0
-339.0 49.71 -216.0
-336.0 49.35 -216.0
-333.0 50.43 -216.0
-330.0 47.71 -216.0
-327.0 32.91 -216.0
-324.0 30.48 -216.0
-321.0 38.39 -216.0
-318.0 35.5 -216.0
-315.0 30.84 -216.0
-312.0 31.3 -216.0
-309.0 27.79 -216.0
-399.0 64.01 -213.0
-396.0 66.87 -213.0
-393.0 67.23 -213.0
-390.0 66.37 -213.0
-387.0 64.08 -213.0
-384.0 56.7 -213.0
-381.0 53.78 -213.0
-378.0 54.37 -213.0
-375.0 37.37 -213.0
-372.0 34.48 -213.0
-369.0 45.61 -213.0
-366.0 49.54 -213.0
-363.0 53.81 -213.0
-360.0 54.63 -213.0
-357.0 55.58 -213.0
-354.0 55.68 -213.0
-351.0 54.17 -213.0
-348.0 52.17 -213.0
-345.0 50.1 -213.0
-342.0 49.71 -213.0
-339.0 41.41 -213.0
-336.0 44.16 -213.0
-333.0 40.16 -213.0
-330.0 38.19 -213.0
-327.0 29.56 -213.0
-324.0 29.4 -213.0
-321.0 35.3 -213.0
-318.0 35.34 -213.0
-315.0 28.19 -213.0
-312.0 30.84 -213.0
-399.0 65.13 -210.0
-396.0 66.93 -210.0
-393.0 67.95 -210.0
-390.0 64.9 -210.0
-387.0 65.69 -210.0
-384.0 64.44 -210.0
-381.0 60.86 -210.0
-378.0 41.05 -210.0
-375.0 43.38 -210.0
-372.0 40.29 -210.0
-369.0 38.45 -210.0
-366.0 49.22 -210.0
-363.0 49.9 -210.0
-360.0 54.43 -210.0
-357.0 57.55 -210.0
-354.0 52.33 -210.0
-351.0 51.68 -210.0
-348.0 52.59 -210.0
-345.0 50.95 -210.0
-342.0 47.08 -210.0
-339.0 43.08 -210.0
-336.0 40.62 -210.0
-333.0 38.68 -210.0
-330.0 37.83 -210.0
-327.0 24.58 -210.0
-324.0 23.59 -210.0
-321.0 32.55 -210.0
-399.0 63.78 -207.0
-396.0 68.77 -207.0
-393.0 69.16 -207.0
-390.0 66.9 -207.0
-387.0 66.8 -207.0
-384.0 65.46 -207.0
-381.0 58.63 -207.0
-378.0 56.6 -207.0
-375.0 42.46 -207.0
-372.0 43.34 -207.0
-369.0 39.27 -207.0
-366.0 44.43 -207.0
-363.0 52.17 -207.0
-360.0 54.27 -207.0
-357.0 54.43 -207.0
-354.0 53.87 -207.0
-351.0 54.56 -207.0
-348.0 52.76 -207.0
-345.0 48.79 -207.0
-342.0 42.42 -207.0
-339.0 45.34 -207.0
-336.0 37.77 -207.0
-333.0 39.27 -207.0
-330.0 36.19 -207.0
-327.0 24.48 -207.0
-324.0 12.86 -207.0
-399.0 59.91 -204.0
-396.0 65.0 -204.0
-393.0 67.03 -204.0
-390.0 67.36 -204.0
-387.0 67.13 -204.0
-384.0 60.86 -204.0
-381.0 55.71 -204.0
-378.0 38.03 -204.0
-375.0 46.3 -204.0
-372.0 43.54 -204.0
-369.0 42.16 -204.0
-366.0 40.09 -204.0
-363.0 44.52 -204.0
-360.0 51.18 -204.0
-357.0 48.13 -204.0
-354.0 51.61 -204.0
-351.0 53.32 -204.0
-348.0 51.84 -204.0
-345.0 49.74 -204.0
-342.0 40.23 -204.0
-339.0 39.57 -204.0
-336.0 38.75 -204.0
-333.0 36.98 -204.0
-330.0 37.08 -204.0
-327.0 24.94 -204.0
-399.0 57.61 -201.0
-396.0 58.27 -201.0
-393.0 59.94 -201.0
-390.0 55.58 -201.0
-387.0 63.29 -201.0
-384.0 56.83 -201.0
-381.0 55.65 -201.0
-378.0 49.84 -201.0
-375.0 49.48 -201.0
-372.0 48.82 -201.0
-369.0 41.51 -201.0
-366.0 42.82 -201.0
-363.0 42.03 -201.0
-360.0 48.85 -201.0
-357.0 47.48 -201.0
-354.0 42.42 -201.0
-351.0 46.03 -201.0
-348.0 48.3 -201.0
-345.0 30.45 -201.0
-342.0 30.58 -201.0
-339.0 24.97 -201.0
-336.0 33.63 -201.0
-333.0 30.94 -201.0
-330.0 22.87 -201.0
-399.0 50.13 -198.0
-396.0 56.17 -198.0
-393.0 53.12 -198.0
-390.0 47.77 -198.0
-387.0 44.2 -198.0
-384.0 50.04 -198.0
-381.0 47.67 -198.0
-378.0 51.05 -198.0
-375.0 51.09 -198.0
-372.0 51.61 -198.0
-369.0 46.49 -198.0
-366.0 40.62 -198.0
-363.0 40.88 -198.0
-360.0 32.81 -198.0
-357.0 29.63 -198.0
-354.0 43.74 -198.0
-351.0 41.37 -198.0
-348.0 35.5 -198.0
-345.0 35.3 -198.0
-342.0 26.22 -198.0
-339.0 24.05 -198.0
-336.0 25.1 -198.0
-399.0 50.72 -195.0
-396.0 51.02 -195.0
-393.0 46.85 -195.0
-390.0 47.18 -195.0
-387.0 48.53 -195.0
-384.0 52.17 -195.0
-381.0 37.14 -195.0
-378.0 50.2 -195.0
-375.0 52.23 -195.0
-372.0 49.15 -195.0
-369.0 47.51 -195.0
-366.0 43.05 -195.0
-363.0 43.44 -195.0
-360.0 39.27 -195.0
-357.0 33.47 -195.0
-354.0 38.36 -195.0
-351.0 43.38 -195.0
-348.0 35.67 -195.0
-345.0 31.53 -195.0
-342.0 11.62 -195.0
-339.0 22.12 -195.0
-399.0 46.66 -192.0
-396.0 46.33 -192.0
-393.0 46.3 -192.0
-390.0 43.08 -192.0
-387.0 31.17 -192.0
-384.0 48.62 -192.0
-381.0 49.97 -192.0
-378.0 50.89 -192.0
-375.0 51.41 -192.0
-372.0 51.28 -192.0
-369.0 46.75 -192.0
-366.0 45.61 -192.0
-363.0 41.77 -192.0
-360.0 33.04 -192.0
-357.0 35.76 -192.0
-354.0 39.11 -192.0
-351.0 40.88 -192.0
-348.0 37.08 -192.0
-345.0 32.19 -192.0
-342.0 10.5 -192.0
-339.0 10.11 -192.0
-399.0 51.54 -189.0
-396.0 50.04 -189.0
-393.0 45.57 -189.0
-390.0 40.69 -189.0
-387.0 47.35 -189.0
-384.0 50.33 -189.0
-381.0 52.43 -189.0
-378.0 51.61 -189.0
-375.0 55.42 -189.0
-372.0 52.4 -189.0
-369.0 47.67 -189.0
-366.0 47.64 -189.0
-363.0 38.88 -189.0
-360.0 38.09 -189.0
-357.0 31.63 -189.0
-354.0 35.5 -189.0
-351.0 34.55 -189.0
-348.0 32.45 -189.0
-399.0 52.92 -186.0
-396.0 49.84 -186.0
-393.0 43.7 -186.0
-390.0 47.05 -186.0
-387.0 50.99 -186.0
-384.0 48.76 -186.0
-381.0 51.58 -186.0
-378.0 45.8 -186.0
-375.0 46.39 -186.0
-372.0 49.08 -186.0
-369.0 44.16 -186.0
-366.0 42.16 -186.0
-363.0 42.1 -186.0
-360.0 41.08 -186.0
-357.0 42.16 -186.0
-354.0 31.47 -186.0
-351.0 30.65 -186.0
-348.0 24.58 -186.0
-399.0 41.34 -183.0
-396.0 47.74 -183.0
-393.0 49.08 -183.0
-390.0 45.08 -183.0
-387.0 50.46 -183.0
-384.0 54.04 -183.0
-381.0 53.84 -183.0
-378.0 50.3 -183.0
-375.0 47.71 -183.0
-372.0 46.1 -183.0
-369.0 43.15 -183.0
-366.0 46.43 -183.0
-363.0 44.36 -183.0
-360.0 40.91 -183.0
-357.0 38.26 -183.0
-354.0 32.94 -183.0
-351.0 27.27 -183.0
-348.0 24.67 -183.0
-399.0 41.9 -180.0
-396.0 46.0 -180.0
-393.0 48.33 -180.0
-390.0 45.38 -180.0
-387.0 46.26 -180.0
-384.0 51.09 -180.0
-381.0 50.99 -180.0
-378.0 52.53 -180.0
-375.0 48.43 -180.0
-372.0 45.9 -180.0
-369.0 43.57 -180.0
-366.0 43.51 -180.0
-363.0 46.16 -180.0
-360.0 42.06 -180.0
-357.0 35.37 -180.0
-354.0 34.45 -180.0
-351.0 27.82 -180.0
-348.0 19.39 -180.0
-345.0 9.45 -180.0
-123.0 7.45 -180.0
-399.0 42.06 -177.0
-396.0 48.39 -177.0
-393.0 47.48 -177.0
-390.0 49.25 -177.0
-387.0 50.17 -177.0
-384.0 50.66 -177.0
-381.0 47.64 -177.0
-378.0 47.25 -177.0
-375.0 43.83 -177.0
-372.0 44.46 -177.0
-369.0 42.72 -177.0
-366.0 45.57 -177.0
-363.0 44.2 -177.0
-360.0 41.24 -177.0
-357.0 38.09 -177.0
-354.0 38.49 -177.0
-351.0 28.87 -177.0
-348.0 22.9 -177.0
-123.0 7.35 -177.0
-120.0 6.93 -177.0
-399.0 45.84 -174.0
-396.0 46.59 -174.0
-393.0 47.84 -174.0
-390.0 48.82 -174.0
-387.0 48.95 -174.0
-384.0 47.77 -174.0
-381.0 44.85 -174.0
-378.0 43.9 -174.0
-375.0 42.98 -174.0
-372.0 38.22 -174.0
-369.0 40.26 -174.0
-366.0 38.95 -174.0
-363.0 38.39 -174.0
-360.0 39.01 -174.0
-357.0 37.83 -174.0
-354.0 37.5 -174.0
-351.0 24.08 -174.0
-123.0 6.56 -174.0
-120.0 6.24 -174.0
-399.0 46.59 -171.0
-396.0 44.13 -171.0
-393.0 47.18 -171.0
-390.0 47.61 -171.0
-387.0 50.0 -171.0
-384.0 49.71 -171.0
-381.0 43.18 -171.0
-378.0 44.2 -171.0
-375.0 42.29 -171.0
-372.0 38.45 -171.0
-369.0 37.31 -171.0
-366.0 36.85 -171.0
-363.0 36.29 -171.0
-360.0 37.08 -171.0
-357.0 23.82 -171.0
-354.0 23.13 -171.0
-351.0 18.77 -171.0
-123.0 4.33 -171.0
-120.0 4.73 -171.0
399.0 1.09 -171.0
-399.0 47.08 -168.0
-396.0 39.11 -168.0
-393.0 47.44 -168.0
-390.0 49.87 -168.0
-387.0 50.13 -168.0
-384.0 48.13 -168.0
-381.0 46.49 -168.0
-378.0 44.1 -168.0
-375.0 44.2 -168.0
-372.0 38.03 -168.0
-369.0 35.93 -168.0
-366.0 38.75 -168.0
-363.0 35.27 -168.0
-360.0 34.39 -168.0
-357.0 21.59 -168.0
-123.0 3.78 -168.0
-120.0 10.7 -168.0
-117.0 4.33 -168.0
399.0 0.43 -168.0
-399.0 48.43 -165.0
-396.0 46.2 -165.0
-393.0 45.28 -165.0
-390.0 46.98 -165.0
-387.0 45.84 -165.0
-384.0 48.17 -165.0
-381.0 40.52 -165.0
-378.0 37.9 -165.0
-375.0 39.57 -165.0
-372.0 35.34 -165.0
-369.0 37.27 -165.0
-366.0 35.96 -165.0
-363.0 34.78 -165.0
-360.0 26.09 -165.0
-357.0 16.05 -165.0
-354.0 12.83 -165.0
-123.0 9.68 -165.0
-120.0 10.96 -165.0
-117.0 10.27 -165.0
393.0 5.94 -165.0
396.0 3.09 -165.0
399.0 6.17 -165.0
-399.0 41.21 -162.0
-396.0 36.78 -162.0
-393.0 44.52 -162.0
-390.0 43.8 -162.0
-387.0 45.44 -162.0
-384.0 35.7 -162.0
-381.0 41.93 -162.0
-378.0 35.7 -162.0
-375.0 36.29 -162.0
-372.0 35.53 -162.0
-369.0 33.5 -162.0
-366.0 35.5 -162.0
-363.0 30.58 -162.0
-360.0 15.16 -162.0
-357.0 17.59 -162.0
-123.0 10.73 -162.0
-120.0 10.7 -162.0
-117.0 10.6 -162.0
393.0 4.27 -162.0
396.0 6.83 -162.0
399.0 3.61 -162.0
-399.0 27.2 -159.0
-396.0 27.3 -159.0
-393.0 28.41 -159.0
-390.0 25.86 -159.0
-387.0 42.59 -159.0
-384.0 31.01 -159.0
-381.0 31.5 -159.0
-378.0 31.3 -159.0
-375.0 31.53 -159.0
-372.0 31.27 -159.0
-120.0 5.06 -159.0
-117.0 3.97 -159.0
390.0 0.82 -159.0
393.0 2.56 -159.0
396.0 3.84 -159.0
399.0 4.14 -159.0
-399.0 41.54 -156.0
-396.0 25.49 -156.0
-393.0 26.94 -156.0
-390.0 25.56 -156.0
-387.0 24.61 -156.0
-384.0 29.3 -156.0
-381.0 27.59 -156.0
-378.0 25.92 -156.0
-375.0 28.55 -156.0
-120.0 5.78 -156.0
-117.0 5.81 -156.0
387.0 4.6 -156.0
390.0 1.64 -156.0
393.0 3.51 -156.0
396.0 3.68 -156.0
399.0 13.22 -156.0
-399.0 43.21 -153.0
-396.0 33.04 -153.0
-393.0 23.2 -153.0
-390.0 22.97 -153.0
-387.0 30.51 -153.0
-384.0 29.46 -153.0
-381.0 27.53 -153.0
-378.0 27.2 -153.0
-375.0 18.31 -153.0
384.0 5.15 -153.0
387.0 1.87 -153.0
390.0 2.66 -153.0
393.0 3.22 -153.0
396.0 24.51 -153.0
399.0 4.04 -153.0
-399.0 41.31 -150.0
-396.0 18.08 -150.0
-393.0 19.88 -150.0
-390.0 23.03 -150.0
-387.0 25.53 -150.0
-384.0 29.46 -150.0
-381.0 29.79 -150.0
-378.0 17.13 -150.0
387.0 1.22 -150.0
390.0 3.09 -150.0
393.0 4.4 -150.0
396.0 24.18 -150.0
399.0 34.25 -150.0
-399.0 37.17 -147.0
-396.0 23.59 -147.0
-393.0 13.62 -147.0
-390.0 24.67 -147.0
-387.0 19.16 -147.0
-384.0 1.41 -147.0
-381.0 18.21 -147.0
384.0 0.63 -147.0
387.0 0.95 -147.0
390.0 2.5 -147.0
393.0 23.66 -147.0
396.0 25.76 -147.0
399.0 37.96 -147.0
-399.0 32.84 -144.0
-396.0 20.84 -144.0
-393.0 17.36 -144.0
-390.0 14.41 -144.0
-387.0 2.33 -144.0
-384.0 0.49 -144.0
330.0 0.17 -144.0
378.0 4.27 -144.0
384.0 0.99 -144.0
387.0 1.02 -144.0
390.0 32.38 -144.0
393.0 31.07 -144.0
396.0 47.84 -144.0
399.0 45.87 -144.0
-399.0 34.75 -141.0
-396.0 31.6 -141.0
-393.0 18.15 -141.0
-390.0 18.87 -141.0
-387.0 0.76 -141.0
303.0 0.33 -141.0
324.0 1.38 -141.0
327.0 0.23 -141.0
330.0 15.69 -141.0
336.0 0.95 -141.0
378.0 5.09 -141.0
384.0 1.05 -141.0
387.0 2.04 -141.0
390.0 22.15 -141.0
393.0 34.42 -141.0
396.0 43.7 -141.0
399.0 46.69 -141.0
-399.0 30.45 -138.0
-396.0 24.31 -138.0
-393.0 22.08 -138.0
-390.0 13.98 -138.0
-387.0 12.34 -138.0
303.0 3.91 -138.0
342.0 4.53 -138.0
381.0 1.05 -138.0
384.0 1.68 -138.0
387.0 2.92 -138.0
390.0 32.84 -138.0
393.0 44.52 -138.0
396.0 50.59 -138.0
399.0 49.81 -138.0
-399.0 19.13 -135.0
-396.0 24.41 -135.0
-393.0 22.57 -135.0
-390.0 9.88 -135.0
291.0 0.2 -135.0
294.0 4.46 -135.0
297.0 4.43 -135.0
300.0 4.2 -135.0
375.0 4.14 -135.0
378.0 2.79 -135.0
381.0 1.81 -135.0
384.0 3.15 -135.0
387.0 16.01 -135.0
390.0 44.33 -135.0
393.0 45.54 -135.0
396.0 50.36 -135.0
399.0 48.07 -135.0
-399.0 10.86 -132.0
-396.0 11.22 -132.0
285.0 4.5 -132.0
288.0 4.07 -132.0
360.0 5.02 -132.0
363.0 4.53 -132.0
366.0 4.56 -132.0
369.0 4.66 -132.0
375.0 2.07 -132.0
378.0 2.17 -132.0
381.0 2.33 -132.0
384.0 2.46 -132.0
387.0 14.04 -132.0
390.0 5.68 -132.0
393.0 44.79 -132.0
396.0 49.02 -132.0
399.0 47.94 -132.0
-399.0 22.31 -129.0
276.0 0.3 -129.0
279.0 4.37 -129.0
282.0 3.32 -129.0
348.0 11.94 -129.0
372.0 4.86 -129.0
375.0 0.66 -129.0
378.0 2.07 -129.0
381.0 2.66 -129.0
384.0 30.68 -129.0
387.0 31.37 -129.0
390.0 43.54 -129.0
393.0 44.1 -129.0
396.0 44.1 -129.0
399.0 46.62 -129.0
-399.0 12.08 -126.0
270.0 4.6 -126.0
273.0 4.83 -126.0
276.0 0.17 -126.0
369.0 3.84 -126.0
372.0 3.74 -126.0
375.0 3.25 -126.0
378.0 3.58 -126.0
381.0 26.71 -126.0
384.0 31.86 -126.0
387.0 35.8 -126.0
390.0 43.87 -126.0
393.0 46.26 -126.0
396.0 45.8 -126.0
399.0 45.9 -126.0
258.0 4.3 -123.0
264.0 2.07 -123.0
366.0 12.11 -123.0
369.0 12.7 -123.0
372.0 10.96 -123.0
375.0 3.12 -123.0
378.0 2.99 -123.0
381.0 18.08 -123.0
384.0 37.8 -123.0
387.0 40.62 -123.0
390.0 41.05 -123.0
393.0 43.18 -123.0
396.0 52.2 -123.0
399.0 47.77 -123.0
-399.0 10.04 -120.0
258.0 2.63 -120.0
366.0 15.0 -120.0
369.0 14.11 -120.0
372.0 11.98 -120.0
378.0 2.3 -120.0
381.0 39.77 -120.0
384.0 38.22 -120.0
387.0 37.54 -120.0
390.0 41.47 -120.0
393.0 45.51 -120.0
396.0 50.66 -120.0
399.0 52.66 -120.0
366.0 8.37 -117.0
369.0 10.34 -117.0
372.0 10.53 -117.0
375.0 3.64 -117.0
378.0 36.94 -117.0
381.0 40.23 -117.0
384.0 45.84 -117.0
387.0 43.74 -117.0
390.0 51.81 -117.0
393.0 53.02 -117.0
396.0 55.22 -117.0
399.0 58.83 -117.0
363.0 0.79 -114.0
366.0 13.52 -114.0
369.0 9.39 -114.0
372.0 2.56 -114.0
375.0 18.64 -114.0
378.0 25.3 -114.0
381.0 41.47 -114.0
384.0 47.15 -114.0
387.0 46.89 -114.0
390.0 50.23 -114.0
393.0 49.18 -114.0
396.0 51.77 -114.0
399.0 53.15 -114.0
309.0 0.33 -111.0
312.0 0.89 -111.0
315.0 1.87 -111.0
333.0 0.79 -111.0
360.0 1.12 -111.0
363.0 4.76 -111.0
366.0 13.81 -111.0
369.0 12.93 -111.0
372.0 15.88 -111.0
375.0 28.78 -111.0
378.0 40.62 -111.0
381.0 41.73 -111.0
384.0 44.98 -111.0
387.0 44.62 -111.0
390.0 49.38 -111.0
393.0 53.78 -111.0
396.0 53.51 -111.0
399.0 54.69 -111.0
183.0 4.4 -108.0
189.0 4.27 -108.0
198.0 4.6 -108.0
222.0 0.63 -108.0
228.0 0.33 -108.0
309.0 4.01 -108.0
312.0 4.04 -108.0
315.0 2.27 -108.0
318.0 3.25 -108.0
321.0 3.58 -108.0
324.0 7.29 -108.0
333.0 1.28 -108.0
336.0 1.28 -108.0
357.0 0.99 -108.0
360.0 2.2 -108.0
363.0 5.02 -108.0
366.0 11.03 -108.0
369.0 2.46 -108.0
372.0 2.96 -108.0
375.0 28.51 -108.0
378.0 34.98 -108.0
381.0 50.33 -108.0
384.0 48.53 -108.0
387.0 50.66 -108.0
390.0 51.81 -108.0
393.0 54.01 -108.0
396.0 48.03 -108.0
399.0 50.95 -108.0
147.0 5.02 -105.0
150.0 4.6 -105.0
153.0 5.19 -105.0
156.0 5.06 -105.0
159.0 0.27 -105.0
168.0 4.43 -105.0
171.0 4.4 -105.0
222.0 5.68 -105.0
243.0 0.3 -105.0
309.0 3.97 -105.0
312.0 4.04 -105.0
315.0 4.01 -105.0
318.0 4.1 -105.0
321.0 4.2 -105.0
324.0 6.7 -105.0
327.0 7.25 -105.0
330.0 2.59 -105.0
333.0 2.36 -105.0
336.0 1.38 -105.0
354.0 1.15 -105.0
357.0 1.45 -105.0
360.0 2.86 -105.0
363.0 4.66 -105.0
366.0 3.22 -105.0
369.0 3.61 -105.0
372.0 21.85 -105.0
375.0 29.99 -105.0
378.0 34.85 -105.0
381.0 49.02 -105.0
384.0 48.1 -105.0
387.0 48.76 -105.0
390.0 52.46 -105.0
393.0 52.66 -105.0
396.0 29.46 -105.0
399.0 54.07 -105.0
132.0 3.94 -102.0
144.0 0.3 -102.0
243.0 4.53 -102.0
246.0 4.79 -102.0
306.0 10.89 -102.0
309.0 4.14 -102.0
312.0 4.04 -102.0
315.0 4.14 -102.0
318.0 4.07 -102.0
321.0 4.2 -102.0
324.0 4.14 -102.0
327.0 4.2 -102.0
330.0 3.81 -102.0
333.0 2.86 -102.0
351.0 1.25 -102.0
354.0 1.45 -102.0
357.0 3.55 -102.0
360.0 5.22 -102.0
363.0 3.91 -102.0
366.0 2.0 -102.0
369.0 13.78 -102.0
372.0 20.74 -102.0
375.0 33.66 -102.0
378.0 33.6 -102.0
381.0 37.86 -102.0
384.0 44.88 -102.0
387.0 48.89 -102.0
390.0 51.12 -102.0
393.0 42.85 -102.0
396.0 56.2 -102.0
399.0 54.92 -102.0
102.0 0.63 -99.0
105.0 4.43 -99.0
108.0 0.4 -99.0
222.0 4.3 -99.0
306.0 12.21 -99.0
309.0 12.24 -99.0
312.0 12.14 -99.0
315.0 4.1 -99.0
318.0 4.2 -99.0
321.0 4.17 -99.0
324.0 4.17 -99.0
327.0 4.14 -99.0
330.0 4.1 -99.0
333.0 3.28 -99.0
336.0 1.58 -99.0
339.0 1.77 -99.0
351.0 1.18 -99.0
354.0 4.63 -99.0
357.0 4.23 -99.0
360.0 4.63 -99.0
363.0 4.17 -99.0
366.0 2.99 -99.0
369.0 31.6 -99.0
372.0 36.29 -99.0
375.0 36.52 -99.0
378.0 26.18 -99.0
381.0 27.73 -99.0
384.0 40.36 -99.0
387.0 38.75 -99.0
390.0 50.69 -99.0
393.0 53.97 -99.0
396.0 56.76 -99.0
399.0 55.97 -99.0
72.0 4.66 -96.0
75.0 4.27 -96.0
303.0 11.72 -96.0
306.0 12.24 -96.0
309.0 12.31 -96.0
312.0 12.27 -96.0
315.0 12.24 -96.0
318.0 11.91 -96.0
321.0 4.14 -96.0
324.0 4.23 -96.0
327.0 4.14 -96.0
330.0 4.14 -96.0
333.0 1.31 -96.0
336.0 2.0 -96.0
339.0 2.04 -96.0
342.0 1.97 -96.0
348.0 2.0 -96.0
351.0 2.86 -96.0
354.0 2.0 -96.0
357.0 5.48 -96.0
360.0 9.22 -96.0
363.0 37.01 -96.0
366.0 39.21 -96.0
369.0 42.69 -96.0
372.0 33.17 -96.0
375.0 39.21 -96.0
378.0 33.3 -96.0
381.0 47.21 -96.0
384.0 41.73 -96.0
387.0 47.35 -96.0
390.0 46.72 -96.0
393.0 49.77 -96.0
396.0 57.75 -96.0
399.0 55.68 -96.0
27.0 0.76 -93.0
33.0 0.66 -93.0
36.0 4.99 -93.0
39.0 3.97 -93.0
45.0 0.69 -93.0
48.0 0.27 -93.0
51.0 5.06 -93.0
54.0 0.79 -93.0
57.0 4.66 -93.0
243.0 4.99 -93.0
303.0 12.21 -93.0
306.0 12.21 -93.0
309.0 12.34 -93.0
312.0 12.31 -93.0
315.0 12.27 -93.0
318.0 12.31 -93.0
321.0 12.17 -93.0
324.0 4.01 -93.0
327.0 4.07 -93.0
330.0 4.01 -93.0
333.0 2.07 -93.0
336.0 2.0 -93.0
339.0 1.94 -93.0
342.0 1.84 -93.0
345.0 0.95 -93.0
348.0 1.71 -93.0
351.0 2.96 -93.0
354.0 4.89 -93.0
357.0 5.42 -93.0
360.0 35.73 -93.0
363.0 36.49 -93.0
366.0 39.86 -93.0
369.0 43.15 -93.0
372.0 47.28 -93.0
375.0 44.26 -93.0
378.0 48.72 -93.0
381.0 43.18 -93.0
384.0 36.65 -93.0
387.0 47.44 -93.0
390.0 50.92 -93.0
393.0 58.7 -93.0
396.0 57.45 -93.0
399.0 57.02 -93.0
-9.0 4.27 -90.0
-6.0 0.46 -90.0
-3.0 4.96 -90.0
9.0 0.59 -90.0
15.0 3.35 -90.0
243.0 3.41 -90.0
300.0 9.94 -90.0
303.0 12.17 -90.0
306.0 12.21 -90.0
309.0 12.24 -90.0
312.0 12.27 -90.0
315.0 12.24 -90.0
318.0 12.37 -90.0
321.0 12.01 -90.0
336.0 1.87 -90.0
339.0 1.91 -90.0
345.0 0.76 -90.0
348.0 3.51 -90.0
351.0 4.76 -90.0
354.0 5.28 -90.0
357.0 7.68 -90.0
360.0 33.01 -90.0
363.0 41.44 -90.0
366.0 46.2 -90.0
369.0 46.36 -90.0
372.0 44.56 -90.0
375.0 43.83 -90.0
378.0 50.92 -90.0
381.0 51.74 -90.0
384.0 46.23 -90.0
387.0 48.62 -90.0
390.0 47.21 -90.0
393.0 57.06 -90.0
396.0 60.63 -90.0
399.0 61.85 -90.0
-45.0 0.53 -87.0
-27.0 3.87 -87.0
-24.0 4.46 -87.0
-21.0 4.1 -87.0
-9.0 4.66 -87.0
246.0 0.69 -87.0
297.0 11.06 -87.0
300.0 12.17 -87.0
303.0 12.21 -87.0
306.0 12.31 -87.0
309.0 12.31 -87.0
312.0 12.31 -87.0
315.0 12.21 -87.0
318.0 12.21 -87.0
327.0 13.39 -87.0
339.0 1.54 -87.0
342.0 1.54 -87.0
345.0 4.56 -87.0
348.0 4.76 -87.0
351.0 5.28 -87.0
354.0 4.89 -87.0
357.0 17.23 -87.0
360.0 13.88 -87.0
363.0 40.91 -87.0
366.0 42.92 -87.0
369.0 45.7 -87.0
372.0 46.03 -87.0
375.0 48.1 -87.0
378.0 53.78 -87.0
381.0 50.82 -87.0
384.0 44.33 -87.0
387.0 51.54 -87.0
390.0 56.89 -87.0
393.0 58.04 -87.0
396.0 56.37 -87.0
399.0 60.7 -87.0
297.0 11.55 -84.0
300.0 12.27 -84.0
303.0 12.21 -84.0
306.0 12.31 -84.0
309.0 12.34 -84.0
312.0 12.31 -84.0
315.0 12.37 -84.0
318.0 12.21 -84.0
324.0 1.74 -84.0
327.0 1.41 -84.0
336.0 0.66 -84.0
339.0 1.64 -84.0
342.0 2.59 -84.0
345.0 3.78 -84.0
348.0 4.1 -84.0
351.0 5.12 -84.0
354.0 10.34 -84.0
357.0 15.13 -84.0
360.0 31.01 -84.0
363.0 28.84 -84.0
366.0 45.64 -84.0
369.0 50.66 -84.0
372.0 51.18 -84.0
375.0 51.87 -84.0
378.0 52.76 -84.0
381.0 53.05 -84.0
384.0 48.79 -84.0
387.0 48.07 -84.0
390.0 59.09 -84.0
393.0 59.39 -84.0
396.0 61.49 -84.0
399.0 62.67 -84.0
246.0 4.2 -81.0
297.0 12.21 -81.0
300.0 12.17 -81.0
303.0 12.21 -81.0
306.0 12.27 -81.0
309.0 12.37 -81.0
312.0 12.34 -81.0
315.0 12.4 -81.0
321.0 2.0 -81.0
324.0 1.84 -81.0
327.0 1.77 -81.0
330.0 0.95 -81.0
336.0 0.59 -81.0
339.0 2.59 -81.0
342.0 4.43 -81.0
345.0 4.43 -81.0
348.0 4.04 -81.0
351.0 21.07 -81.0
354.0 18.28 -81.0
357.0 30.97 -81.0
360.0 37.14 -81.0
363.0 45.97 -81.0
366.0 44.75 -81.0
369.0 50.43 -81.0
372.0 50.79 -81.0
375.0 52.86 -81.0
378.0 51.51 -81.0
381.0 47.97 -81.0
384.0 50.17 -81.0
387.0 47.28 -81.0
390.0 54.69 -81.0
393.0 58.66 -81.0
396.0 59.25 -81.0
399.0 63.03 -81.0
297.0 12.17 -78.0
300.0 12.27 -78.0
303.0 12.47 -78.0
306.0 12.31 -78.0
309.0 12.24 -78.0
312.0 12.17 -78.0
315.0 12.27 -78.0
321.0 1.87 -78.0
324.0 1.84 -78.0
327.0 1.71 -78.0
330.0 0.95 -78.0
333.0 1.31 -78.0
336.0 2.4 -78.0
339.0 3.32 -78.0
342.0 13.72 -78.0
345.0 11.81 -78.0
348.0 14.01 -78.0
351.0 20.15 -78.0
354.0 31.76 -78.0
357.0 42.85 -78.0
360.0 46.2 -78.0
363.0 44.1 -78.0
366.0 46.79 -78.0
369.0 45.48 -78.0
372.0 52.36 -78.0
375.0 53.81 -78.0
378.0 51.45 -78.0
381.0 52.43 -78.0
384.0 44.88 -78.0
387.0 47.12 -78.0
390.0 53.45 -78.0
393.0 58.53 -78.0
396.0 60.01 -78.0
399.0 61.35 -78.0
246.0 5.02 -75.0
294.0 12.27 -75.0
297.0 12.27 -75.0
300.0 12.96 -75.0
303.0 12.27 -75.0
306.0 12.34 -75.0
309.0 12.24 -75.0
312.0 12.21 -75.0
315.0 11.55 -75.0
324.0 1.77 -75.0
333.0 0.99 -75.0
336.0 1.58 -75.0
339.0 2.4 -75.0
342.0 19.98 -75.0
345.0 18.57 -75.0
348.0 10.44 -75.0
351.0 25.46 -75.0
354.0 32.02 -75.0
357.0 39.34 -75.0
360.0 45.67 -75.0
363.0 41.7 -75.0
366.0 46.82 -75.0
369.0 51.54 -75.0
372.0 50.56 -75.0
375.0 51.84 -75.0
378.0 47.02 -75.0
381.0 50.99 -75.0
384.0 48.53 -75.0
387.0 35.01 -75.0
390.0 53.58 -75.0
393.0 55.38 -75.0
396.0 59.88 -75.0
399.0 56.37 -75.0
294.0 12.27 -72.0
297.0 12.27 -72.0
300.0 12.34 -72.0
303.0 5.61 -72.0
306.0 12.24 -72.0
309.0 12.24 -72.0
312.0 12.17 -72.0
333.0 1.51 -72.0
336.0 19.49 -72.0
339.0 26.84 -72.0
342.0 24.51 -72.0
345.0 22.48 -72.0
348.0 24.25 -72.0
351.0 22.87 -72.0
354.0 35.27 -72.0
357.0 44.1 -72.0
360.0 41.08 -72.0
363.0 48.46 -72.0
366.0 48.76 -72.0
369.0 51.02 -72.0
372.0 52.07 -72.0
375.0 50.63 -72.0
378.0 50.69 -72.0
381.0 50.72 -72.0
384.0 49.12 -72.0
387.0 49.31 -72.0
390.0 46.33 -72.0
393.0 51.48 -72.0
396.0 55.94 -72.0
399.0 57.19 -72.0
291.0 3.87 -69.0
294.0 12.34 -69.0
297.0 12.34 -69.0
300.0 12.31 -69.0
303.0 12.37 -69.0
306.0 12.21 -69.0
309.0 12.31 -69.0
312.0 12.08 -69.0
330.0 2.79 -69.0
333.0 15.32 -69.0
336.0 28.12 -69.0
339.0 30.61 -69.0
342.0 28.22 -69.0
345.0 29.27 -69.0
348.0 26.22 -69.0
351.0 34.78 -69.0
354.0 35.34 -69.0
357.0 37.7 -69.0
360.0 42.29 -69.0
363.0 44.72 -69.0
366.0 48.76 -69.0
369.0 50.4 -69.0
372.0 51.18 -69.0
375.0 50.92 -69.0
378.0 50.27 -69.0
381.0 46.3 -69.0
384.0 49.25 -69.0
387.0 49.81 -69.0
390.0 53.12 -69.0
393.0 54.3 -69.0
396.0 55.58 -69.0
399.0 62.93 -69.0
249.0 0.1 -66.0
291.0 12.37 -66.0
294.0 12.4 -66.0
297.0 12.4 -66.0
300.0 12.21 -66.0
303.0 12.31 -66.0
306.0 12.31 -66.0
309.0 12.37 -66.0
327.0 0.46 -66.0
330.0 1.31 -66.0
333.0 19.13 -66.0
336.0 25.92 -66.0
339.0 27.89 -66.0
342.0 24.05 -66.0
345.0 27.89 -66.0
348.0 29.76 -66.0
351.0 35.44 -66.0
354.0 46.92 -66.0
357.0 47.64 -66.0
360.0 46.69 -66.0
363.0 46.49 -66.0
366.0 46.92 -66.0
369.0 50.3 -66.0
372.0 53.22 -66.0
375.0 50.56 -66.0
378.0 49.97 -66.0
381.0 44.06 -66.0
384.0 46.56 -66.0
387.0 59.58 -66.0
390.0 55.42 -66.0
393.0 56.79 -66.0
396.0 64.5 -66.0
399.0 61.88 -66.0
249.0 4.17 -63.0
288.0 10.5 -63.0
291.0 12.34 -63.0
294.0 12.5 -63.0
297.0 12.4 -63.0
300.0 12.37 -63.0
303.0 12.34 -63.0
306.0 12.27 -63.0
327.0 0.63 -63.0
330.0 4.46 -63.0
333.0 4.66 -63.0
336.0 20.25 -63.0
339.0 22.64 -63.0
342.0 25.33 -63.0
345.0 24.64 -63.0
348.0 35.53 -63.0
351.0 37.57 -63.0
354.0 42.1 -63.0
357.0 48.03 -63.0
360.0 43.11 -63.0
363.0 41.96 -63.0
366.0 51.25 -63.0
369.0 50.43 -63.0
372.0 50.46 -63.0
375.0 49.28 -63.0
378.0 53.91 -63.0
381.0 52.63 -63.0
384.0 45.31 -63.0
387.0 54.76 -63.0
390.0 59.12 -63.0
393.0 61.19 -63.0
396.0 60.7 -63.0
399.0 61.32 -63.0
288.0 11.58 -60.0
291.0 11.68 -60.0
294.0 12.11 -60.0
297.0 11.98 -60.0
300.0 12.31 -60.0
303.0 12.31 -60.0
306.0 12.31 -60.0
324.0 0.4 -60.0
327.0 2.69 -60.0
330.0 4.14 -60.0
333.0 3.94 -60.0
336.0 20.87 -60.0
339.0 30.68 -60.0
342.0 39.21 -60.0
345.0 47.77 -60.0
348.0 44.72 -60.0
351.0 43.44 -60.0
354.0 40.82 -60.0
357.0 48.43 -60.0
360.0 44.62 -60.0
363.0 45.87 -60.0
366.0 46.07 -60.0
369.0 51.48 -60.0
372.0 51.91 -60.0
375.0 53.05 -60.0
378.0 54.2 -60.0
381.0 56.2 -60.0
384.0 46.69 -60.0
387.0 52.4 -60.0
390.0 60.5 -60.0
393.0 60.34 -60.0
396.0 62.54 -60.0
399.0 60.24 -60.0
249.0 0.23 -57.0
291.0 11.39 -57.0
294.0 11.55 -57.0
297.0 11.58 -57.0
300.0 11.81 -57.0
303.0 11.88 -57.0
306.0 12.21 -57.0
327.0 4.1 -57.0
330.0 4.86 -57.0
333.0 11.62 -57.0
336.0 23.3 -57.0
339.0 33.86 -57.0
342.0 38.85 -57.0
345.0 45.54 -57.0
348.0 48.49 -57.0
351.0 47.94 -57.0
354.0 43.34 -57.0
357.0 42.88 -57.0
360.0 40.59 -57.0
363.0 46.46 -57.0
366.0 49.97 -57.0
369.0 48.0 -57.0
372.0 53.19 -57.0
375.0 52.33 -57.0
378.0 56.76 -57.0
381.0 54.86 -57.0
384.0 44.62 -57.0
387.0 20.34 -57.0
390.0 54.92 -57.0
393.0 56.3 -57.0
396.0 59.62 -57.0
399.0 60.11 -57.0
294.0 10.57 -54.0
297.0 10.89 -54.0
300.0 11.26 -54.0
303.0 11.75 -54.0
324.0 1.64 -54.0
327.0 3.71 -54.0
330.0 4.5 -54.0
333.0 22.35 -54.0
336.0 20.61 -54.0
339.0 34.35 -54.0
342.0 38.75 -54.0
345.0 46.36 -54.0
348.0 48.79 -54.0
351.0 46.33 -54.0
354.0 46.36 -54.0
357.0 41.21 -54.0
360.0 34.85 -54.0
363.0 47.05 -54.0
366.0 52.89 -54.0
369.0 53.87 -54.0
372.0 46.75 -54.0
375.0 49.02 -54.0
378.0 55.84 -54.0
381.0 52.0 -54.0
384.0 40.62 -54.0
387.0 39.47 -54.0
390.0 55.68 -54.0
393.0 59.32 -54.0
396.0 60.8 -54.0
399.0 59.02 -54.0
249.0 3.61 -51.0
324.0 3.78 -51.0
327.0 3.68 -51.0
330.0 3.61 -51.0
333.0 12.44 -51.0
336.0 13.95 -51.0
339.0 25.33 -51.0
342.0 45.31 -51.0
345.0 45.77 -51.0
348.0 52.3 -51.0
351.0 46.3 -51.0
354.0 47.48 -51.0
357.0 38.59 -51.0
360.0 38.72 -51.0
363.0 49.35 -51.0
366.0 51.87 -51.0
369.0 54.33 -51.0
372.0 49.02 -51.0
375.0 54.66 -51.0
378.0 54.83 -51.0
381.0 52.3 -51.0
384.0 44.29 -51.0
387.0 50.72 -51.0
390.0 53.38 -51.0
393.0 57.75 -51.0
396.0 58.43 -51.0
399.0 61.78 -51.0
249.0 1.35 -48.0
324.0 4.5 -48.0
327.0 5.25 -48.0
330.0 4.73 -48.0
333.0 2.76 -48.0
336.0 24.64 -48.0
339.0 24.58 -48.0
342.0 44.59 -48.0
345.0 41.54 -48.0
348.0 48.66 -48.0
351.0 43.97 -48.0
354.0 44.39 -48.0
357.0 41.11 -48.0
360.0 41.14 -48.0
363.0 48.2 -48.0
366.0 53.48 -48.0
369.0 50.76 -48.0
372.0 52.56 -48.0
375.0 54.23 -48.0
378.0 58.8 -48.0
381.0 57.71 -48.0
384.0 50.56 -48.0
387.0 43.97 -48.0
390.0 50.79 -48.0
393.0 54.96 -48.0
396.0 59.16 -48.0
399.0 59.58 -48.0
252.0 1.84 -45.0
324.0 4.3 -45.0
327.0 4.66 -45.0
330.0 4.37 -45.0
333.0 24.25 -45.0
336.0 29.2 -45.0
339.0 35.53 -45.0
342.0 39.5 -45.0
345.0 41.28 -45.0
348.0 46.95 -45.0
351.0 47.87 -45.0
354.0 44.88 -45.0
357.0 46.03 -45.0
360.0 41.6 -45.0
363.0 48.49 -45.0
366.0 47.61 -45.0
369.0 47.02 -45.0
372.0 53.58 -45.0
375.0 53.38 -45.0
378.0 56.24 -45.0
381.0 53.58 -45.0
384.0 50.13 -45.0
387.0 50.72 -45.0
390.0 45.48 -45.0
393.0 53.05 -45.0
396.0 56.79 -45.0
399.0 58.96 -45.0
321.0 2.92 -42.0
324.0 4.46 -42.0
327.0 9.62 -42.0
330.0 10.01 -42.0
333.0 33.76 -42.0
336.0 39.01 -42.0
339.0 38.88 -42.0
342.0 35.01 -42.0
345.0 44.06 -42.0
348.0 47.71 -42.0
351.0 45.05 -42.0
354.0 44.2 -42.0
357.0 46.46 -42.0
360.0 47.25 -42.0
363.0 43.18 -42.0
366.0 45.97 -42.0
369.0 45.18 -42.0
372.0 50.27 -42.0
375.0 45.8 -42.0
378.0 53.38 -42.0
381.0 51.25 -42.0
384.0 45.67 -42.0
387.0 54.1 -42.0
390.0 56.5 -42.0
393.0 55.51 -42.0
396.0 56.6 -42.0
399.0 58.63 -42.0
252.0 5.06 -39.0
321.0 2.59 -39.0
324.0 14.67 -39.0
327.0 17.78 -39.0
330.0 2.07 -39.0
333.0 29.99 -39.0
336.0 35.6 -39.0
339.0 38.59 -39.0
342.0 46.72 -39.0
345.0 43.93 -39.0
348.0 51.68 -39.0
351.0 51.74 -39.0
354.0 47.97 -39.0
357.0 52.4 -39.0
360.0 45.38 -39.0
363.0 53.32 -39.0
366.0 49.05 -39.0
369.0 46.56 -39.0
372.0 50.0 -39.0
375.0 54.3 -39.0
378.0 51.97 -39.0
381.0 54.73 -39.0
384.0 51.38 -39.0
387.0 53.71 -39.0
