ply
format ascii 1.0
comment Original LiDAR: USGS National Dataset
comment Cropped and converted to PLY by CloudCompare v2.11 alpha (Anoia)
comment Converted from original position to centered position by Chris Calef.
element vertex 2543
property float x
property float y
property float z
end_header
-235.5 15.3 138.0
-232.5 15.34 138.0
-229.5 15.27 138.0
-226.5 15.34 138.0
-223.5 15.43 138.0
-217.5 15.3 138.0
-184.5 73.7 138.0
-169.5 73.31 138.0
-166.5 80.53 138.0
-163.5 76.62 138.0
-160.5 78.36 138.0
-157.5 79.38 138.0
-154.5 79.02 138.0
-151.5 74.69 138.0
-148.5 51.56 138.0
-145.5 33.12 138.0
-142.5 23.21 138.0
-115.5 14.42 138.0
-109.5 14.38 138.0
-106.5 14.42 138.0
-103.5 14.45 138.0
-100.5 14.51 138.0
-97.5 14.51 138.0
-94.5 14.61 138.0
-91.5 14.68 138.0
-88.5 14.68 138.0
-85.5 14.65 138.0
-82.5 14.61 138.0
-79.5 14.84 138.0
-76.5 14.78 138.0
-73.5 15.01 138.0
-70.5 14.68 138.0
-67.5 15.04 138.0
-64.5 15.04 138.0
-61.5 15.14 138.0
-58.5 15.34 138.0
-55.5 14.88 138.0
-52.5 15.34 138.0
-49.5 15.24 138.0
-46.5 15.37 138.0
-43.5 15.47 138.0
-40.5 15.4 138.0
-37.5 15.79 138.0
-34.5 15.53 138.0
-31.5 15.66 138.0
-28.5 15.63 138.0
-25.5 15.63 138.0
-22.5 15.79 138.0
-19.5 16.45 138.0
-298.5 47.62 141.0
-295.5 41.55 141.0
-256.5 15.53 141.0
-253.5 15.53 141.0
-247.5 15.6 141.0
-244.5 15.5 141.0
-241.5 15.56 141.0
-238.5 15.6 141.0
-235.5 15.63 141.0
-232.5 15.83 141.0
-169.5 50.44 141.0
-166.5 72.22 141.0
-163.5 80.69 141.0
-160.5 78.03 141.0
-157.5 80.62 141.0
-154.5 71.54 141.0
-151.5 74.23 141.0
-148.5 47.72 141.0
-133.5 14.71 141.0
-130.5 14.81 141.0
-127.5 15.04 141.0
-124.5 14.84 141.0
-121.5 14.78 141.0
-118.5 15.04 141.0
-115.5 14.94 141.0
-112.5 15.24 141.0
-109.5 15.17 141.0
-106.5 15.07 141.0
-103.5 15.11 141.0
-100.5 15.14 141.0
-97.5 15.24 141.0
-94.5 15.2 141.0
-91.5 15.37 141.0
-88.5 15.01 141.0
-85.5 15.3 141.0
-82.5 15.53 141.0
-79.5 15.56 141.0
-76.5 15.7 141.0
-73.5 15.76 141.0
-70.5 15.79 141.0
-67.5 15.73 141.0
-64.5 15.89 141.0
-61.5 15.99 141.0
-58.5 15.89 141.0
-55.5 16.22 141.0
-52.5 16.02 141.0
-49.5 16.19 141.0
-46.5 16.06 141.0
-43.5 16.45 141.0
-40.5 16.29 141.0
-37.5 16.22 141.0
-34.5 16.61 141.0
-31.5 16.71 141.0
-28.5 16.75 141.0
-25.5 16.42 141.0
-22.5 16.78 141.0
-19.5 16.88 141.0
-298.5 38.92 144.0
-259.5 15.99 144.0
-247.5 15.86 144.0
-244.5 15.89 144.0
-241.5 15.93 144.0
-238.5 15.89 144.0
-235.5 15.93 144.0
-166.5 67.63 144.0
-163.5 76.72 144.0
-160.5 75.28 144.0
-157.5 78.98 144.0
-154.5 73.96 144.0
-151.5 58.58 144.0
-148.5 48.77 144.0
-145.5 15.17 144.0
-139.5 15.27 144.0
-136.5 15.34 144.0
-133.5 15.24 144.0
-130.5 15.27 144.0
-127.5 15.3 144.0
-124.5 15.5 144.0
-121.5 15.6 144.0
-118.5 15.6 144.0
-115.5 15.79 144.0
-112.5 15.7 144.0
-109.5 15.96 144.0
-106.5 15.83 144.0
-103.5 16.06 144.0
-100.5 15.89 144.0
-97.5 15.93 144.0
-94.5 16.02 144.0
-91.5 15.66 144.0
-88.5 16.32 144.0
-85.5 16.02 144.0
-82.5 16.35 144.0
-79.5 16.32 144.0
-76.5 16.32 144.0
-73.5 16.48 144.0
-70.5 16.58 144.0
-67.5 16.98 144.0
-64.5 16.94 144.0
-61.5 16.84 144.0
-58.5 17.04 144.0
-55.5 16.94 144.0
-52.5 17.11 144.0
-49.5 17.17 144.0
-46.5 17.14 144.0
-43.5 17.01 144.0
-40.5 17.24 144.0
-37.5 17.11 144.0
-34.5 17.37 144.0
-31.5 17.43 144.0
-28.5 17.4 144.0
-25.5 17.7 144.0
-22.5 17.57 144.0
-286.5 16.42 147.0
-268.5 16.38 147.0
-226.5 16.35 147.0
-211.5 16.09 147.0
-163.5 67.66 147.0
-160.5 73.24 147.0
-157.5 65.79 147.0
-154.5 60.97 147.0
-151.5 60.64 147.0
-148.5 15.79 147.0
-145.5 15.83 147.0
-142.5 15.63 147.0
-139.5 15.89 147.0
-136.5 15.89 147.0
-133.5 16.09 147.0
-130.5 15.96 147.0
-127.5 16.06 147.0
-124.5 15.79 147.0
-121.5 16.38 147.0
-118.5 16.22 147.0
-115.5 16.35 147.0
-112.5 16.58 147.0
-109.5 16.75 147.0
-106.5 16.68 147.0
-103.5 16.55 147.0
-100.5 16.71 147.0
-97.5 16.88 147.0
-94.5 16.75 147.0
-91.5 17.14 147.0
-88.5 16.75 147.0
-85.5 17.27 147.0
-82.5 17.21 147.0
-79.5 17.21 147.0
-76.5 17.43 147.0
-73.5 17.4 147.0
-70.5 17.3 147.0
-67.5 17.63 147.0
-64.5 17.8 147.0
-61.5 17.47 147.0
-58.5 17.83 147.0
-55.5 17.83 147.0
-52.5 17.73 147.0
-49.5 17.89 147.0
-46.5 17.6 147.0
-43.5 17.96 147.0
-40.5 17.66 147.0
-37.5 18.19 147.0
-34.5 18.19 147.0
-31.5 18.19 147.0
-28.5 18.26 147.0
-25.5 18.42 147.0
-277.5 16.91 150.0
-265.5 16.71 150.0
-259.5 16.61 150.0
-256.5 16.61 150.0
-253.5 16.78 150.0
-250.5 16.61 150.0
-241.5 16.58 150.0
-229.5 16.68 150.0
-223.5 16.65 150.0
-220.5 16.52 150.0
-214.5 16.45 150.0
-205.5 16.38 150.0
-199.5 16.19 150.0
-187.5 16.38 150.0
-184.5 16.19 150.0
-181.5 16.22 150.0
-178.5 16.16 150.0
-175.5 16.22 150.0
-172.5 16.32 150.0
-169.5 16.19 150.0
-166.5 16.32 150.0
-163.5 35.35 150.0
-160.5 69.7 150.0
-157.5 62.68 150.0
-154.5 60.18 150.0
-151.5 56.18 150.0
-148.5 16.48 150.0
-145.5 16.88 150.0
-142.5 16.48 150.0
-139.5 16.78 150.0
-136.5 16.88 150.0
-133.5 16.71 150.0
-130.5 16.84 150.0
-127.5 16.98 150.0
-124.5 17.14 150.0
-121.5 16.84 150.0
-118.5 17.17 150.0
-115.5 17.17 150.0
-112.5 17.43 150.0
-109.5 17.53 150.0
-106.5 17.4 150.0
-103.5 17.57 150.0
-100.5 17.3 150.0
-97.5 17.63 150.0
-94.5 17.8 150.0
-91.5 17.8 150.0
-88.5 17.89 150.0
-85.5 17.7 150.0
-82.5 18.19 150.0
-79.5 18.06 150.0
-76.5 18.06 150.0
-73.5 18.35 150.0
-70.5 18.35 150.0
-67.5 18.52 150.0
-64.5 18.42 150.0
-61.5 18.55 150.0
-58.5 18.81 150.0
-55.5 18.45 150.0
-52.5 18.58 150.0
-49.5 18.65 150.0
-46.5 18.78 150.0
-43.5 18.65 150.0
-40.5 18.81 150.0
-37.5 18.78 150.0
-34.5 19.14 150.0
-31.5 18.94 150.0
-28.5 19.08 150.0
-25.5 19.27 150.0
-298.5 17.4 153.0
-280.5 17.24 153.0
-262.5 17.17 153.0
-256.5 17.07 153.0
-253.5 17.04 153.0
-250.5 17.11 153.0
-244.5 17.07 153.0
-238.5 17.27 153.0
-235.5 17.11 153.0
-232.5 17.14 153.0
-226.5 17.34 153.0
-223.5 17.11 153.0
-220.5 17.4 153.0
-217.5 17.07 153.0
-214.5 17.24 153.0
-211.5 17.07 153.0
-208.5 16.98 153.0
-205.5 16.91 153.0
-202.5 17.04 153.0
-199.5 16.88 153.0
-196.5 16.91 153.0
-193.5 16.75 153.0
-190.5 16.91 153.0
-187.5 16.81 153.0
-184.5 17.01 153.0
-181.5 16.94 153.0
-178.5 17.14 153.0
-175.5 16.81 153.0
-172.5 16.94 153.0
-169.5 16.88 153.0
-166.5 16.98 153.0
-163.5 17.01 153.0
-160.5 17.27 153.0
-157.5 17.01 153.0
-154.5 17.21 153.0
-151.5 17.24 153.0
-148.5 17.14 153.0
-145.5 17.07 153.0
-142.5 17.57 153.0
-139.5 17.6 153.0
-136.5 17.57 153.0
-133.5 17.24 153.0
-130.5 17.66 153.0
-127.5 17.7 153.0
-124.5 17.7 153.0
-121.5 18.06 153.0
-118.5 18.29 153.0
-115.5 18.16 153.0
-112.5 18.03 153.0
-109.5 18.09 153.0
-106.5 18.19 153.0
-103.5 18.09 153.0
-100.5 18.32 153.0
-97.5 17.99 153.0
-94.5 18.35 153.0
-91.5 18.45 153.0
-88.5 18.48 153.0
-85.5 18.71 153.0
-82.5 18.75 153.0
-79.5 18.88 153.0
-76.5 18.68 153.0
-73.5 18.85 153.0
-70.5 18.91 153.0
-67.5 19.08 153.0
-64.5 18.98 153.0
-61.5 18.98 153.0
-58.5 19.04 153.0
-55.5 19.08 153.0
-52.5 19.14 153.0
-49.5 19.14 153.0
-46.5 19.21 153.0
-43.5 19.44 153.0
-40.5 19.44 153.0
-37.5 19.5 153.0
-34.5 19.44 153.0
-31.5 19.8 153.0
-28.5 19.4 153.0
-292.5 17.63 156.0
-286.5 17.7 156.0
-283.5 17.73 156.0
-274.5 17.66 156.0
-259.5 17.53 156.0
-256.5 17.57 156.0
-253.5 17.63 156.0
-250.5 17.63 156.0
-247.5 17.57 156.0
-244.5 17.66 156.0
-241.5 17.83 156.0
-235.5 17.83 156.0
-232.5 17.57 156.0
-229.5 17.76 156.0
-226.5 17.63 156.0
-223.5 17.8 156.0
-220.5 17.57 156.0
-217.5 17.89 156.0
-214.5 17.57 156.0
-211.5 17.63 156.0
-208.5 17.37 156.0
-205.5 17.53 156.0
-202.5 17.37 156.0
-199.5 17.43 156.0
-196.5 17.53 156.0
-193.5 17.7 156.0
-190.5 17.57 156.0
-187.5 17.7 156.0
-184.5 17.63 156.0
-181.5 17.76 156.0
-178.5 17.53 156.0
-175.5 17.73 156.0
-172.5 17.73 156.0
-169.5 17.76 156.0
-166.5 17.89 156.0
-163.5 17.89 156.0
-160.5 17.99 156.0
-157.5 17.93 156.0
-154.5 18.03 156.0
-151.5 18.03 156.0
-148.5 18.19 156.0
-145.5 18.26 156.0
-142.5 18.32 156.0
-139.5 18.42 156.0
-136.5 17.99 156.0
-133.5 18.29 156.0
-130.5 18.16 156.0
-127.5 18.29 156.0
-124.5 18.29 156.0
-121.5 18.55 156.0
-118.5 18.48 156.0
-115.5 18.48 156.0
-112.5 18.71 156.0
-109.5 18.91 156.0
-106.5 18.91 156.0
-103.5 18.78 156.0
-100.5 18.78 156.0
-97.5 19.21 156.0
-94.5 19.14 156.0
-91.5 19.3 156.0
-88.5 18.9 156.0
-85.5 19.34 156.0
-82.5 19.21 156.0
-79.5 19.08 156.0
-76.5 19.21 156.0
-73.5 19.37 156.0
-70.5 19.4 156.0
-67.5 19.21 156.0
-64.5 19.4 156.0
-61.5 19.44 156.0
-58.5 19.44 156.0
-55.5 19.63 156.0
-52.5 19.7 156.0
-49.5 19.83 156.0
-46.5 19.76 156.0
-43.5 20.03 156.0
-40.5 20.09 156.0
-37.5 19.93 156.0
-34.5 20.19 156.0
-31.5 20.19 156.0
-265.5 18.16 159.0
-259.5 18.19 159.0
-253.5 18.26 159.0
-250.5 18.39 159.0
-247.5 18.09 159.0
-244.5 18.22 159.0
-241.5 18.35 159.0
-238.5 18.48 159.0
-235.5 18.26 159.0
-232.5 18.29 159.0
-229.5 18.26 159.0
-226.5 18.45 159.0
-223.5 18.39 159.0
-220.5 18.29 159.0
-217.5 18.32 159.0
-211.5 18.32 159.0
-208.5 18.19 159.0
-205.5 18.19 159.0
-202.5 18.26 159.0
-199.5 18.16 159.0
-196.5 18.16 159.0
-193.5 18.12 159.0
-190.5 18.12 159.0
-187.5 18.22 159.0
-184.5 18.39 159.0
-181.5 18.22 159.0
-178.5 18.45 159.0
-175.5 18.35 159.0
-172.5 18.45 159.0
-169.5 18.45 159.0
-166.5 18.48 159.0
-163.5 18.55 159.0
-160.5 18.55 159.0
-157.5 18.85 159.0
-154.5 18.85 159.0
-151.5 18.71 159.0
-148.5 18.85 159.0
-145.5 18.94 159.0
-142.5 18.78 159.0
-139.5 18.81 159.0
-136.5 19.08 159.0
-133.5 18.75 159.0
-130.5 19.01 159.0
-127.5 18.91 159.0
-124.5 18.94 159.0
-121.5 19.27 159.0
-118.5 19.11 159.0
-115.5 19.37 159.0
-112.5 19.5 159.0
-109.5 19.83 159.0
-106.5 19.73 159.0
-103.5 19.9 159.0
-100.5 19.7 159.0
-97.5 19.73 159.0
-94.5 19.76 159.0
-91.5 19.76 159.0
-88.5 19.86 159.0
-85.5 19.63 159.0
-82.5 19.83 159.0
-79.5 19.8 159.0
-76.5 19.93 159.0
-73.5 20.03 159.0
-70.5 20.16 159.0
-67.5 20.06 159.0
-64.5 20.06 159.0
-61.5 20.32 159.0
-58.5 20.26 159.0
-55.5 20.35 159.0
-52.5 20.39 159.0
-49.5 20.35 159.0
-46.5 20.55 159.0
-43.5 20.45 159.0
-40.5 20.58 159.0
-37.5 20.52 159.0
-34.5 20.45 159.0
-31.5 20.52 159.0
-256.5 18.88 162.0
-253.5 18.85 162.0
-250.5 18.88 162.0
-247.5 18.85 162.0
-244.5 18.88 162.0
-241.5 18.85 162.0
-238.5 18.91 162.0
-235.5 18.85 162.0
-229.5 19.01 162.0
-226.5 18.91 162.0
-217.5 18.94 162.0
-214.5 18.88 162.0
-211.5 18.65 162.0
-208.5 18.85 162.0
-205.5 18.94 162.0
-202.5 18.85 162.0
-199.5 18.68 162.0
-196.5 19.01 162.0
-193.5 19.01 162.0
-190.5 18.98 162.0
-187.5 18.94 162.0
-184.5 19.01 162.0
-181.5 19.01 162.0
-178.5 19.24 162.0
-175.5 19.34 162.0
-172.5 18.98 162.0
-169.5 19.27 162.0
-166.5 19.27 162.0
-163.5 19.17 162.0
-160.5 19.4 162.0
-157.5 19.57 162.0
-154.5 19.47 162.0
-151.5 19.53 162.0
-148.5 19.7 162.0
-145.5 19.4 162.0
-142.5 19.9 162.0
-139.5 19.7 162.0
-136.5 19.53 162.0
-133.5 19.8 162.0
-130.5 19.83 162.0
-127.5 19.9 162.0
-124.5 19.57 162.0
-121.5 20.13 162.0
-118.5 19.73 162.0
-115.5 19.86 162.0
-112.5 20.26 162.0
-109.5 20.22 162.0
-106.5 20.32 162.0
-103.5 20.49 162.0
-100.5 20.42 162.0
-97.5 20.32 162.0
-94.5 20.45 162.0
-91.5 20.52 162.0
-88.5 20.32 162.0
-85.5 20.62 162.0
-82.5 20.35 162.0
-79.5 20.52 162.0
-76.5 20.49 162.0
-73.5 20.52 162.0
-70.5 20.58 162.0
-67.5 20.58 162.0
-64.5 20.62 162.0
-61.5 20.55 162.0
-58.5 20.72 162.0
-55.5 20.55 162.0
-52.5 20.65 162.0
-49.5 20.68 162.0
-46.5 20.65 162.0
-43.5 20.65 162.0
-40.5 20.58 162.0
-37.5 20.72 162.0
-34.5 20.88 162.0
-205.5 19.86 165.0
-202.5 19.83 165.0
-199.5 19.8 165.0
-193.5 19.73 165.0
-190.5 19.67 165.0
-187.5 19.83 165.0
-184.5 19.5 165.0
-181.5 19.96 165.0
-178.5 19.83 165.0
-175.5 20.03 165.0
-172.5 20.06 165.0
-169.5 20.06 165.0
-166.5 19.99 165.0
-163.5 19.9 165.0
-160.5 20.26 165.0
-157.5 20.29 165.0
-154.5 20.06 165.0
-151.5 20.19 165.0
-148.5 20.03 165.0
-145.5 20.39 165.0
-142.5 20.32 165.0
-139.5 20.39 165.0
-136.5 20.49 165.0
-133.5 20.42 165.0
-130.5 20.52 165.0
-127.5 20.35 165.0
-124.5 20.68 165.0
-121.5 20.58 165.0
-118.5 20.62 165.0
-115.5 20.58 165.0
-112.5 20.65 165.0
-109.5 20.75 165.0
-106.5 20.65 165.0
-103.5 20.72 165.0
-100.5 20.58 165.0
-97.5 20.91 165.0
-94.5 20.72 165.0
-91.5 20.75 165.0
-88.5 20.78 165.0
-85.5 20.85 165.0
-82.5 20.75 165.0
-79.5 20.65 165.0
-76.5 20.81 165.0
-73.5 20.78 165.0
-70.5 20.72 165.0
-67.5 20.78 165.0
-64.5 20.75 165.0
-61.5 20.78 165.0
-58.5 20.78 165.0
-55.5 20.95 165.0
-52.5 20.75 165.0
-49.5 20.81 165.0
-46.5 20.88 165.0
-43.5 20.91 165.0
-40.5 20.91 165.0
-37.5 20.85 165.0
-217.5 20.29 168.0
-211.5 20.19 168.0
-208.5 20.26 168.0
-205.5 19.96 168.0
-202.5 20.19 168.0
-199.5 20.39 168.0
-196.5 20.26 168.0
-193.5 20.42 168.0
-190.5 20.52 168.0
-187.5 20.52 168.0
-184.5 20.52 168.0
-181.5 20.42 168.0
-178.5 20.55 168.0
-175.5 20.58 168.0
-172.5 20.58 168.0
-169.5 20.68 168.0
-166.5 20.65 168.0
-163.5 20.75 168.0
-160.5 20.72 168.0
-157.5 20.78 168.0
-154.5 20.81 168.0
-151.5 20.68 168.0
-148.5 20.88 168.0
-145.5 20.95 168.0
-142.5 20.88 168.0
-139.5 20.85 168.0
-136.5 20.81 168.0
-133.5 20.75 168.0
-130.5 20.81 168.0
-127.5 20.81 168.0
-124.5 20.88 168.0
-121.5 20.88 168.0
-118.5 20.81 168.0
-115.5 20.91 168.0
-112.5 20.91 168.0
-109.5 20.85 168.0
-106.5 20.91 168.0
-103.5 20.88 168.0
-100.5 20.88 168.0
-97.5 20.91 168.0
-94.5 21.01 168.0
-91.5 20.75 168.0
-88.5 20.91 168.0
-85.5 20.88 168.0
-82.5 20.81 168.0
-79.5 21.01 168.0
-76.5 20.88 168.0
-73.5 20.95 168.0
-70.5 20.95 168.0
-67.5 20.91 168.0
-64.5 20.98 168.0
-61.5 20.95 168.0
-58.5 20.98 168.0
-55.5 20.91 168.0
-52.5 21.01 168.0
-49.5 20.95 168.0
-46.5 21.01 168.0
-43.5 21.04 168.0
-40.5 21.08 168.0
-37.5 21.04 168.0
-280.5 20.42 171.0
-277.5 20.49 171.0
-274.5 20.49 171.0
-265.5 20.49 171.0
-253.5 20.45 171.0
-250.5 20.52 171.0
-247.5 20.68 171.0
-238.5 20.49 171.0
-235.5 20.68 171.0
-229.5 20.58 171.0
-226.5 20.65 171.0
-223.5 20.98 171.0
-220.5 20.91 171.0
-217.5 20.91 171.0
-214.5 20.75 171.0
-211.5 20.78 171.0
-208.5 20.85 171.0
-205.5 20.88 171.0
-202.5 20.81 171.0
-199.5 20.81 171.0
-196.5 20.95 171.0
-193.5 21.01 171.0
-190.5 20.95 171.0
-187.5 21.04 171.0
-184.5 20.98 171.0
-181.5 21.04 171.0
-178.5 20.98 171.0
-175.5 20.98 171.0
-172.5 20.91 171.0
-169.5 20.98 171.0
-166.5 20.98 171.0
-163.5 21.04 171.0
-160.5 20.98 171.0
-157.5 21.01 171.0
-154.5 21.04 171.0
-151.5 20.95 171.0
-148.5 20.98 171.0
-145.5 21.04 171.0
-142.5 20.95 171.0
-139.5 21.04 171.0
-136.5 20.98 171.0
-133.5 21.04 171.0
-130.5 20.98 171.0
-127.5 21.14 171.0
-124.5 21.01 171.0
-121.5 20.98 171.0
-118.5 21.01 171.0
-115.5 20.88 171.0
-112.5 21.01 171.0
-109.5 21.04 171.0
-106.5 21.11 171.0
-103.5 21.08 171.0
-100.5 21.01 171.0
-97.5 21.17 171.0
-94.5 21.04 171.0
-91.5 21.14 171.0
-88.5 20.98 171.0
-85.5 21.04 171.0
-82.5 21.08 171.0
-79.5 21.14 171.0
-76.5 21.11 171.0
-73.5 21.14 171.0
-70.5 21.24 171.0
-67.5 21.27 171.0
-64.5 21.04 171.0
-61.5 21.21 171.0
-58.5 21.11 171.0
-55.5 21.24 171.0
-52.5 21.11 171.0
-49.5 21.27 171.0
-46.5 21.01 171.0
-43.5 21.21 171.0
-40.5 21.24 171.0
-295.5 20.68 174.0
-292.5 20.45 174.0
-289.5 20.88 174.0
-286.5 20.88 174.0
-283.5 20.88 174.0
-280.5 20.81 174.0
-277.5 20.62 174.0
-274.5 21.27 174.0
-271.5 20.88 174.0
-268.5 21.01 174.0
-265.5 20.88 174.0
-262.5 20.98 174.0
-259.5 20.81 174.0
-256.5 20.85 174.0
-253.5 20.95 174.0
-250.5 20.91 174.0
-247.5 20.85 174.0
-244.5 21.14 174.0
-241.5 21.17 174.0
-238.5 21.08 174.0
-235.5 21.21 174.0
-232.5 21.24 174.0
-229.5 21.21 174.0
-226.5 21.08 174.0
-223.5 21.14 174.0
-220.5 21.04 174.0
-217.5 21.21 174.0
-214.5 21.21 174.0
-211.5 21.14 174.0
-208.5 21.17 174.0
-205.5 21.17 174.0
-202.5 21.04 174.0
-199.5 21.21 174.0
-196.5 21.21 174.0
-193.5 21.14 174.0
-190.5 21.11 174.0
-187.5 21.11 174.0
-184.5 21.04 174.0
-181.5 21.14 174.0
-178.5 21.11 174.0
-175.5 21.17 174.0
-172.5 21.11 174.0
-169.5 21.14 174.0
-166.5 21.08 174.0
-163.5 21.17 174.0
-160.5 21.17 174.0
-157.5 21.14 174.0
-154.5 21.08 174.0
-151.5 21.11 174.0
-148.5 21.04 174.0
-145.5 21.08 174.0
-142.5 21.21 174.0
-139.5 21.14 174.0
-136.5 21.14 174.0
-133.5 21.14 174.0
-130.5 21.08 174.0
-127.5 21.21 174.0
-124.5 21.14 174.0
-121.5 21.21 174.0
-118.5 21.14 174.0
-115.5 21.17 174.0
-112.5 21.08 174.0
-109.5 21.14 174.0
-106.5 21.08 174.0
-103.5 21.11 174.0
-100.5 21.24 174.0
-97.5 21.31 174.0
-94.5 21.27 174.0
-91.5 21.14 174.0
-88.5 21.34 174.0
-85.5 21.27 174.0
-82.5 21.37 174.0
-79.5 21.34 174.0
-76.5 21.44 174.0
-73.5 21.47 174.0
-70.5 21.31 174.0
-67.5 21.24 174.0
-64.5 21.27 174.0
-61.5 21.4 174.0
-58.5 21.47 174.0
-55.5 21.31 174.0
-52.5 21.54 174.0
-49.5 21.44 174.0
-46.5 21.44 174.0
-43.5 21.27 174.0
-298.5 21.08 177.0
-295.5 21.24 177.0
-292.5 21.44 177.0
-289.5 21.37 177.0
-286.5 21.37 177.0
-283.5 21.4 177.0
-280.5 21.24 177.0
-277.5 21.5 177.0
-274.5 21.44 177.0
-271.5 21.4 177.0
-268.5 21.47 177.0
-265.5 21.5 177.0
-262.5 21.5 177.0
-259.5 21.24 177.0
-256.5 21.47 177.0
-253.5 21.34 177.0
-250.5 21.44 177.0
-247.5 21.4 177.0
-244.5 21.31 177.0
-241.5 21.27 177.0
-238.5 21.27 177.0
-235.5 21.31 177.0
-232.5 21.24 177.0
-229.5 21.31 177.0
-226.5 21.34 177.0
-223.5 21.31 177.0
-220.5 21.27 177.0
-217.5 21.31 177.0
-214.5 21.31 177.0
-211.5 21.31 177.0
-208.5 21.21 177.0
-205.5 21.31 177.0
-202.5 21.21 177.0
-199.5 21.21 177.0
-196.5 21.21 177.0
-193.5 21.21 177.0
-190.5 21.21 177.0
-187.5 21.34 177.0
-184.5 21.17 177.0
-181.5 21.21 177.0
-178.5 21.27 177.0
-175.5 21.31 177.0
-172.5 21.27 177.0
-169.5 21.27 177.0
-166.5 21.21 177.0
-163.5 21.34 177.0
-160.5 21.21 177.0
-157.5 21.17 177.0
-154.5 21.34 177.0
-151.5 21.27 177.0
-148.5 21.37 177.0
-145.5 21.21 177.0
-142.5 21.21 177.0
-139.5 21.24 177.0
-136.5 21.31 177.0
-133.5 21.34 177.0
-130.5 21.27 177.0
-127.5 21.4 177.0
-124.5 21.24 177.0
-121.5 21.31 177.0
-118.5 21.34 177.0
-115.5 21.24 177.0
-112.5 21.31 177.0
-109.5 21.37 177.0
-106.5 21.44 177.0
-103.5 21.47 177.0
-100.5 21.37 177.0
-97.5 21.27 177.0
-94.5 21.21 177.0
-91.5 21.44 177.0
-88.5 21.4 177.0
-85.5 21.47 177.0
-82.5 21.27 177.0
-79.5 21.4 177.0
-76.5 21.44 177.0
-73.5 21.5 177.0
-70.5 21.44 177.0
-67.5 21.44 177.0
-64.5 21.5 177.0
-61.5 21.47 177.0
-58.5 21.63 177.0
-55.5 21.63 177.0
-52.5 21.54 177.0
-49.5 21.54 177.0
-46.5 21.5 177.0
-43.5 21.57 177.0
-298.5 21.67 180.0
-295.5 21.63 180.0
-292.5 21.7 180.0
-289.5 21.6 180.0
-286.5 21.67 180.0
-283.5 21.7 180.0
-280.5 21.57 180.0
-277.5 21.6 180.0
-274.5 21.63 180.0
-271.5 21.67 180.0
-268.5 21.67 180.0
-265.5 21.54 180.0
-262.5 21.6 180.0
-259.5 21.57 180.0
-256.5 21.5 180.0
-253.5 21.6 180.0
-250.5 21.47 180.0
-247.5 21.47 180.0
-244.5 21.4 180.0
-241.5 21.5 180.0
-238.5 21.4 180.0
-232.5 21.31 180.0
-229.5 21.37 180.0
-226.5 21.44 180.0
-223.5 21.34 180.0
-220.5 21.27 180.0
-217.5 21.37 180.0
-214.5 21.37 180.0
-211.5 21.44 180.0
-208.5 21.4 180.0
-205.5 21.34 180.0
-202.5 21.34 180.0
-199.5 21.37 180.0
-196.5 21.4 180.0
-193.5 21.4 180.0
-190.5 21.24 180.0
-187.5 21.34 180.0
-184.5 21.31 180.0
-181.5 21.44 180.0
-178.5 21.34 180.0
-175.5 21.31 180.0
-172.5 21.27 180.0
-169.5 21.34 180.0
-166.5 21.54 180.0
-163.5 21.44 180.0
-160.5 21.44 180.0
-157.5 21.5 180.0
-154.5 21.37 180.0
-151.5 21.4 180.0
-148.5 21.44 180.0
-145.5 21.44 180.0
-142.5 21.24 180.0
-139.5 21.54 180.0
-136.5 21.34 180.0
-133.5 21.4 180.0
-130.5 21.5 180.0
-127.5 21.34 180.0
-124.5 21.44 180.0
-121.5 21.31 180.0
-118.5 21.54 180.0
-115.5 21.4 180.0
-112.5 21.4 180.0
-109.5 21.47 180.0
-106.5 21.37 180.0
-103.5 21.5 180.0
-100.5 21.47 180.0
-97.5 21.54 180.0
-94.5 21.54 180.0
-91.5 21.57 180.0
-88.5 21.47 180.0
-85.5 21.44 180.0
-82.5 21.54 180.0
-79.5 21.57 180.0
-76.5 21.54 180.0
-73.5 21.57 180.0
-70.5 21.67 180.0
-67.5 21.7 180.0
-64.5 21.6 180.0
-61.5 21.63 180.0
-58.5 21.57 180.0
-55.5 21.73 180.0
-52.5 21.7 180.0
-49.5 21.77 180.0
-46.5 21.86 180.0
-295.5 21.83 183.0
-292.5 21.73 183.0
-289.5 21.9 183.0
-286.5 21.67 183.0
-283.5 21.73 183.0
-280.5 21.77 183.0
-277.5 21.77 183.0
-274.5 21.8 183.0
-271.5 21.73 183.0
-268.5 21.67 183.0
-265.5 21.54 183.0
-262.5 21.67 183.0
-259.5 21.63 183.0
-256.5 21.6 183.0
-253.5 21.6 183.0
-205.5 21.44 183.0
-202.5 21.67 183.0
-199.5 21.5 183.0
-196.5 21.44 183.0
-193.5 21.34 183.0
-190.5 21.6 183.0
-187.5 21.4 183.0
-184.5 21.47 183.0
-181.5 21.67 183.0
-178.5 21.5 183.0
-175.5 21.54 183.0
-172.5 21.6 183.0
-169.5 21.6 183.0
-166.5 21.5 183.0
-163.5 21.6 183.0
-160.5 21.6 183.0
-157.5 21.47 183.0
-154.5 21.57 183.0
-151.5 21.54 183.0
-148.5 21.57 183.0
-145.5 21.54 183.0
-142.5 21.54 183.0
-139.5 21.44 183.0
-136.5 21.6 183.0
-133.5 21.5 183.0
-130.5 21.6 183.0
-127.5 21.57 183.0
-124.5 21.63 183.0
-121.5 21.57 183.0
-118.5 21.6 183.0
-115.5 21.63 183.0
-112.5 21.57 183.0
-109.5 21.67 183.0
-106.5 21.6 183.0
-103.5 21.63 183.0
-100.5 21.77 183.0
-97.5 21.6 183.0
-94.5 21.73 183.0
-91.5 21.67 183.0
-88.5 21.67 183.0
-85.5 21.83 183.0
-82.5 21.67 183.0
-79.5 21.83 183.0
-76.5 21.73 183.0
-73.5 21.77 183.0
-70.5 21.7 183.0
-67.5 21.83 183.0
-64.5 21.9 183.0
-61.5 21.8 183.0
-58.5 21.77 183.0
-55.5 21.73 183.0
-52.5 21.86 183.0
-49.5 21.8 183.0
-265.5 21.9 186.0
-190.5 21.7 186.0
-181.5 21.63 186.0
-175.5 21.6 186.0
-142.5 21.57 186.0
-139.5 21.73 186.0
-136.5 21.54 186.0
-133.5 21.77 186.0
-130.5 21.7 186.0
-127.5 21.7 186.0
-124.5 21.7 186.0
-121.5 21.8 186.0
-118.5 21.7 186.0
-115.5 21.73 186.0
-112.5 21.77 186.0
-109.5 21.7 186.0
-106.5 21.73 186.0
-103.5 21.83 186.0
-100.5 21.83 186.0
-97.5 21.83 186.0
-94.5 21.8 186.0
-91.5 21.9 186.0
-88.5 21.93 186.0
-85.5 21.83 186.0
-82.5 21.83 186.0
-79.5 21.83 186.0
-76.5 21.96 186.0
-73.5 22.09 186.0
-70.5 21.96 186.0
-67.5 21.96 186.0
-64.5 22.0 186.0
-61.5 22.03 186.0
-58.5 22.0 186.0
-55.5 22.06 186.0
-52.5 22.03 186.0
-49.5 22.32 186.0
-136.5 21.83 189.0
-133.5 21.83 189.0
-130.5 21.77 189.0
-124.5 21.9 189.0
-121.5 21.86 189.0
-118.5 21.83 189.0
-115.5 21.9 189.0
-112.5 21.8 189.0
-109.5 21.83 189.0
-106.5 21.73 189.0
-103.5 21.83 189.0
-100.5 22.03 189.0
-97.5 21.96 189.0
-94.5 22.0 189.0
-91.5 22.03 189.0
-88.5 22.16 189.0
-85.5 22.0 189.0
-82.5 22.06 189.0
-79.5 21.96 189.0
-76.5 21.96 189.0
-73.5 22.09 189.0
-70.5 22.03 189.0
-67.5 22.19 189.0
-64.5 22.16 189.0
-61.5 22.16 189.0
-58.5 22.06 189.0
-55.5 22.19 189.0
-52.5 22.26 189.0
-127.5 22.03 192.0
-124.5 21.93 192.0
-121.5 22.03 192.0
-118.5 21.86 192.0
-115.5 22.03 192.0
-112.5 22.0 192.0
-109.5 22.0 192.0
-106.5 22.0 192.0
-103.5 22.06 192.0
-100.5 22.16 192.0
-97.5 22.19 192.0
-94.5 22.09 192.0
-91.5 22.16 192.0
-88.5 22.16 192.0
-85.5 22.16 192.0
-82.5 22.09 192.0
-79.5 22.22 192.0
-76.5 22.32 192.0
-73.5 22.19 192.0
-70.5 22.19 192.0
-67.5 22.29 192.0
-64.5 22.29 192.0
-61.5 22.22 192.0
-58.5 22.45 192.0
-55.5 22.29 192.0
-130.5 22.09 195.0
-127.5 22.03 195.0
-124.5 22.06 195.0
-121.5 22.22 195.0
-118.5 22.19 195.0
-115.5 22.06 195.0
-112.5 22.06 195.0
-109.5 22.39 195.0
-106.5 22.19 195.0
-103.5 22.22 195.0
-100.5 22.06 195.0
-97.5 22.39 195.0
-94.5 22.36 195.0
-91.5 22.29 195.0
-88.5 22.26 195.0
-85.5 22.26 195.0
-82.5 22.39 195.0
-79.5 22.32 195.0
-76.5 22.32 195.0
-73.5 22.36 195.0
-70.5 22.29 195.0
-67.5 22.26 195.0
-64.5 22.49 195.0
-61.5 22.52 195.0
-58.5 22.39 195.0
-55.5 22.49 195.0
-130.5 22.19 198.0
-127.5 22.22 198.0
-124.5 22.22 198.0
-121.5 22.32 198.0
-118.5 22.26 198.0
-115.5 22.29 198.0
-112.5 22.16 198.0
-109.5 22.32 198.0
-106.5 22.39 198.0
-103.5 22.42 198.0
-100.5 22.29 198.0
-97.5 22.45 198.0
-94.5 22.49 198.0
-91.5 22.29 198.0
-88.5 22.42 198.0
-85.5 22.45 198.0
-82.5 22.42 198.0
-79.5 22.45 198.0
-76.5 22.45 198.0
-73.5 22.49 198.0
-70.5 22.39 198.0
-67.5 22.52 198.0
-64.5 22.62 198.0
-61.5 22.59 198.0
-58.5 22.59 198.0
-133.5 22.39 201.0
-130.5 22.16 201.0
-127.5 22.29 201.0
-124.5 22.36 201.0
-121.5 22.32 201.0
-118.5 22.45 201.0
-115.5 22.39 201.0
-112.5 22.42 201.0
-109.5 22.45 201.0
-106.5 22.45 201.0
-103.5 22.45 201.0
-100.5 22.45 201.0
-97.5 22.52 201.0
-94.5 22.45 201.0
-91.5 22.59 201.0
-88.5 22.65 201.0
-85.5 22.59 201.0
-82.5 22.62 201.0
-79.5 22.59 201.0
-76.5 22.72 201.0
-73.5 22.62 201.0
-70.5 22.62 201.0
-67.5 22.68 201.0
-64.5 22.78 201.0
-61.5 22.78 201.0
-145.5 22.42 204.0
-136.5 22.49 204.0
-133.5 22.32 204.0
-130.5 22.39 204.0
-127.5 22.29 204.0
-124.5 22.39 204.0
-121.5 22.45 204.0
-118.5 22.39 204.0
-115.5 22.49 204.0
-112.5 22.45 204.0
-109.5 22.52 204.0
-106.5 22.49 204.0
-103.5 22.62 204.0
-100.5 22.65 204.0
-97.5 22.59 204.0
-94.5 22.59 204.0
-91.5 22.68 204.0
-88.5 22.72 204.0
-85.5 22.65 204.0
-82.5 22.68 204.0
-79.5 22.62 204.0
-76.5 22.72 204.0
-73.5 22.59 204.0
-70.5 22.55 204.0
-67.5 22.68 204.0
-64.5 22.52 204.0
-61.5 22.55 204.0
-157.5 22.52 207.0
-154.5 22.45 207.0
-151.5 22.42 207.0
-148.5 22.68 207.0
-145.5 22.52 207.0
-142.5 22.55 207.0
-139.5 22.42 207.0
-136.5 22.62 207.0
-133.5 22.55 207.0
-130.5 22.49 207.0
-127.5 22.59 207.0
-124.5 22.55 207.0
-121.5 22.62 207.0
-118.5 22.55 207.0
-115.5 22.62 207.0
-112.5 22.59 207.0
-109.5 22.59 207.0
-106.5 22.52 207.0
-103.5 22.45 207.0
-100.5 22.59 207.0
-97.5 22.36 207.0
-94.5 22.49 207.0
-91.5 22.42 207.0
-88.5 22.68 207.0
-85.5 22.45 207.0
-82.5 22.49 207.0
-79.5 22.49 207.0
-76.5 22.36 207.0
-73.5 22.45 207.0
-70.5 22.39 207.0
-67.5 22.29 207.0
-64.5 22.26 207.0
-166.5 22.49 210.0
-163.5 22.45 210.0
-160.5 22.65 210.0
-157.5 22.59 210.0
-154.5 22.49 210.0
-151.5 22.55 210.0
-148.5 22.49 210.0
-145.5 22.59 210.0
-142.5 22.39 210.0
-139.5 22.52 210.0
-136.5 22.39 210.0
-133.5 22.45 210.0
-130.5 22.42 210.0
-127.5 22.49 210.0
-124.5 22.39 210.0
-121.5 22.42 210.0
-118.5 22.42 210.0
-115.5 22.36 210.0
-112.5 22.42 210.0
-109.5 22.29 210.0
-106.5 22.22 210.0
-103.5 22.26 210.0
-100.5 22.22 210.0
-97.5 22.29 210.0
-94.5 22.22 210.0
-91.5 22.16 210.0
-88.5 22.06 210.0
-85.5 22.03 210.0
-82.5 22.09 210.0
-79.5 22.03 210.0
-76.5 21.93 210.0
-73.5 22.16 210.0
-70.5 21.93 210.0
-67.5 21.93 210.0
-172.5 22.42 213.0
-166.5 22.39 213.0
-163.5 22.26 213.0
-160.5 22.32 213.0
-157.5 22.36 213.0
-154.5 22.26 213.0
-151.5 22.36 213.0
-148.5 22.06 213.0
-145.5 22.29 213.0
-142.5 22.26 213.0
-139.5 22.22 213.0
-136.5 22.22 213.0
-133.5 22.22 213.0
-130.5 22.13 213.0
-127.5 22.06 213.0
-124.5 22.0 213.0
-121.5 21.93 213.0
-118.5 22.0 213.0
-115.5 21.9 213.0
-112.5 22.03 213.0
-109.5 22.0 213.0
-106.5 22.0 213.0
-103.5 21.93 213.0
-100.5 21.96 213.0
-97.5 21.86 213.0
-94.5 21.9 213.0
-91.5 21.8 213.0
-88.5 21.83 213.0
-85.5 21.8 213.0
-82.5 21.8 213.0
-79.5 21.7 213.0
-76.5 21.8 213.0
-73.5 21.7 213.0
-70.5 21.7 213.0
-67.5 21.6 213.0
-232.5 22.62 216.0
-175.5 22.39 216.0
-172.5 22.26 216.0
-163.5 22.03 216.0
-160.5 22.0 216.0
-157.5 22.0 216.0
-154.5 21.96 216.0
-151.5 22.06 216.0
-148.5 21.9 216.0
-145.5 21.9 216.0
-142.5 21.8 216.0
-139.5 21.9 216.0
-136.5 21.9 216.0
-133.5 22.09 216.0
-130.5 21.96 216.0
-127.5 22.06 216.0
-124.5 22.0 216.0
-121.5 21.86 216.0
-118.5 22.0 216.0
-115.5 21.93 216.0
-112.5 21.8 216.0
-109.5 21.93 216.0
-106.5 21.93 216.0
-103.5 21.93 216.0
-100.5 21.8 216.0
-97.5 21.83 216.0
-94.5 21.63 216.0
-91.5 21.67 216.0
-88.5 21.67 216.0
-85.5 21.67 216.0
-82.5 21.54 216.0
-79.5 21.4 216.0
-76.5 21.37 216.0
-73.5 21.27 216.0
-70.5 21.21 216.0
-298.5 22.06 219.0
-271.5 22.39 219.0
-265.5 22.42 219.0
-256.5 22.45 219.0
-250.5 22.45 219.0
-244.5 22.52 219.0
-166.5 22.06 219.0
-160.5 21.96 219.0
-157.5 21.86 219.0
-154.5 21.83 219.0
-151.5 21.96 219.0
-148.5 21.96 219.0
-145.5 21.9 219.0
-142.5 21.86 219.0
-139.5 21.83 219.0
-136.5 21.83 219.0
-133.5 21.9 219.0
-130.5 21.9 219.0
-127.5 21.86 219.0
-124.5 21.93 219.0
-121.5 21.73 219.0
-118.5 21.93 219.0
-115.5 21.67 219.0
-112.5 21.57 219.0
-109.5 21.57 219.0
-106.5 21.44 219.0
-103.5 21.57 219.0
-100.5 21.47 219.0
-97.5 21.21 219.0
-94.5 21.17 219.0
-91.5 21.11 219.0
-88.5 21.11 219.0
-85.5 21.01 219.0
-82.5 20.91 219.0
-79.5 20.95 219.0
-76.5 20.85 219.0
-73.5 20.88 219.0
-295.5 21.9 222.0
-292.5 21.86 222.0
-289.5 21.93 222.0
-274.5 22.16 222.0
-166.5 21.67 222.0
-163.5 21.7 222.0
-160.5 21.83 222.0
-157.5 21.63 222.0
-154.5 21.8 222.0
-151.5 21.47 222.0
-148.5 21.67 222.0
-145.5 21.63 222.0
-142.5 21.63 222.0
-139.5 21.57 222.0
-136.5 21.67 222.0
-133.5 21.5 222.0
-130.5 21.47 222.0
-127.5 21.24 222.0
-124.5 21.31 222.0
-121.5 21.17 222.0
-118.5 21.17 222.0
-115.5 21.17 222.0
-112.5 21.17 222.0
-109.5 20.98 222.0
-106.5 21.01 222.0
-103.5 20.85 222.0
-100.5 20.81 222.0
-97.5 20.78 222.0
-94.5 20.81 222.0
-91.5 20.45 222.0
-88.5 20.68 222.0
-85.5 20.49 222.0
-82.5 20.26 222.0
-79.5 20.35 222.0
-76.5 20.29 222.0
-157.5 21.17 225.0
-151.5 21.01 225.0
-148.5 21.08 225.0
-145.5 20.98 225.0
-142.5 21.04 225.0
-139.5 21.01 225.0
-136.5 20.88 225.0
-133.5 20.95 225.0
-130.5 20.62 225.0
-127.5 20.65 225.0
-124.5 20.75 225.0
-121.5 20.78 225.0
-118.5 20.55 225.0
-115.5 20.62 225.0
-112.5 20.35 225.0
-109.5 20.35 225.0
-106.5 20.26 225.0
-103.5 20.39 225.0
-100.5 20.19 225.0
-97.5 20.16 225.0
-94.5 19.96 225.0
-91.5 19.93 225.0
-88.5 19.76 225.0
-85.5 19.6 225.0
-82.5 19.63 225.0
-79.5 19.5 225.0
-76.5 19.47 225.0
-265.5 21.7 228.0
-145.5 20.39 228.0
-139.5 20.26 228.0
-136.5 20.09 228.0
-133.5 20.16 228.0
-130.5 20.09 228.0
-127.5 19.93 228.0
-124.5 20.13 228.0
-121.5 19.96 228.0
-118.5 19.99 228.0
-112.5 19.9 228.0
-109.5 19.6 228.0
-106.5 19.76 228.0
-103.5 19.44 228.0
-100.5 19.53 228.0
-97.5 19.4 228.0
-94.5 19.63 228.0
-91.5 19.04 228.0
-88.5 19.24 228.0
-85.5 19.14 228.0
-82.5 19.01 228.0
-79.5 18.75 228.0
-103.5 18.98 231.0
-100.5 18.94 231.0
-97.5 18.75 231.0
-94.5 18.68 231.0
-91.5 18.39 231.0
-88.5 18.35 231.0
-85.5 18.42 231.0
-82.5 18.06 231.0
-97.5 18.16 234.0
-94.5 17.76 234.0
-91.5 17.86 234.0
-88.5 17.83 234.0
-85.5 17.8 234.0
-82.5 17.5 234.0
-283.5 18.19 240.0
-265.5 18.75 240.0
-184.5 33.9 240.0
-181.5 42.6 240.0
-178.5 35.84 240.0
-175.5 33.77 240.0
-172.5 22.16 240.0
-133.5 17.34 240.0
-109.5 17.01 240.0
-187.5 33.35 243.0
-184.5 41.75 243.0
-181.5 39.61 243.0
-178.5 37.09 243.0
-175.5 31.48 243.0
-172.5 44.47 243.0
-169.5 34.99 243.0
-166.5 24.92 243.0
-298.5 16.12 246.0
-292.5 16.58 246.0
-289.5 16.38 246.0
-286.5 16.61 246.0
-280.5 16.78 246.0
-268.5 17.07 246.0
-262.5 17.34 246.0
-256.5 17.5 246.0
-232.5 17.17 246.0
-199.5 17.17 246.0
-190.5 31.84 246.0
-187.5 45.91 246.0
-184.5 44.8 246.0
-181.5 48.5 246.0
-178.5 45.49 246.0
-175.5 49.26 246.0
-172.5 49.88 246.0
-169.5 45.16 246.0
-166.5 36.66 246.0
-100.5 15.11 246.0
-97.5 15.07 246.0
-193.5 37.05 249.0
-190.5 42.66 249.0
-187.5 43.32 249.0
-184.5 50.14 249.0
-181.5 50.6 249.0
-178.5 51.29 249.0
-175.5 50.93 249.0
-172.5 51.03 249.0
-169.5 43.55 249.0
-166.5 40.07 249.0
-163.5 30.43 249.0
-298.5 24.0 252.0
-295.5 23.7 252.0
-283.5 14.35 252.0
-280.5 17.4 252.0
-277.5 29.31 252.0
-274.5 30.49 252.0
-271.5 15.01 252.0
-268.5 23.7 252.0
-265.5 20.78 252.0
-262.5 15.14 252.0
-256.5 28.0 252.0
-253.5 19.53 252.0
-250.5 20.13 252.0
-247.5 17.83 252.0
-244.5 17.63 252.0
-241.5 17.83 252.0
-232.5 19.14 252.0
-229.5 17.93 252.0
-226.5 18.19 252.0
-220.5 18.55 252.0
-217.5 18.58 252.0
-211.5 19.08 252.0
-208.5 18.71 252.0
-205.5 18.09 252.0
-202.5 17.83 252.0
-196.5 33.08 252.0
-193.5 34.04 252.0
-190.5 42.3 252.0
-187.5 46.96 252.0
-184.5 52.84 252.0
-181.5 53.82 252.0
-178.5 52.67 252.0
-175.5 52.61 252.0
-172.5 49.19 252.0
-169.5 48.87 252.0
-166.5 41.78 252.0
-163.5 37.61 252.0
-160.5 23.18 252.0
-154.5 15.79 252.0
-298.5 24.06 255.0
-286.5 18.62 255.0
-283.5 21.57 255.0
-280.5 30.26 255.0
-277.5 29.34 255.0
-274.5 33.48 255.0
-271.5 38.1 255.0
-268.5 37.35 255.0
-265.5 30.66 255.0
-262.5 29.97 255.0
-259.5 36.07 255.0
-256.5 31.9 255.0
-253.5 31.9 255.0
-250.5 25.51 255.0
-247.5 25.8 255.0
-244.5 19.53 255.0
-241.5 19.96 255.0
-238.5 18.55 255.0
-235.5 19.34 255.0
-232.5 20.55 255.0
-229.5 20.58 255.0
-226.5 20.09 255.0
-223.5 18.71 255.0
-220.5 18.91 255.0
-217.5 19.5 255.0
-214.5 19.3 255.0
-211.5 19.8 255.0
-208.5 19.44 255.0
-205.5 18.45 255.0
-202.5 17.86 255.0
-199.5 39.29 255.0
-196.5 35.09 255.0
-193.5 39.38 255.0
-190.5 42.99 255.0
-187.5 51.29 255.0
-184.5 53.88 255.0
-181.5 54.74 255.0
-178.5 52.7 255.0
-175.5 52.77 255.0
-172.5 48.18 255.0
-169.5 47.16 255.0
-166.5 40.73 255.0
-163.5 39.71 255.0
-160.5 33.54 255.0
-157.5 16.88 255.0
-298.5 26.72 258.0
-295.5 26.69 258.0
-292.5 28.88 258.0
-289.5 28.95 258.0
-286.5 25.01 258.0
-280.5 40.17 258.0
-277.5 41.98 258.0
-274.5 41.09 258.0
-271.5 37.61 258.0
-268.5 42.43 258.0
-265.5 42.17 258.0
-262.5 41.88 258.0
-259.5 38.4 258.0
-256.5 40.43 258.0
-253.5 36.86 258.0
-250.5 30.16 258.0
-247.5 26.69 258.0
-244.5 25.83 258.0
-241.5 24.32 258.0
-238.5 25.21 258.0
-235.5 23.24 258.0
-232.5 21.04 258.0
-229.5 21.4 258.0
-226.5 21.5 258.0
-223.5 19.5 258.0
-220.5 20.26 258.0
-217.5 19.83 258.0
-214.5 19.27 258.0
-211.5 31.58 258.0
-208.5 38.2 258.0
-205.5 39.15 258.0
-202.5 35.77 258.0
-199.5 40.53 258.0
-196.5 42.76 258.0
-193.5 43.39 258.0
-190.5 46.86 258.0
-187.5 49.95 258.0
-184.5 54.34 258.0
-181.5 55.16 258.0
-178.5 55.72 258.0
-175.5 53.26 258.0
-172.5 55.56 258.0
-169.5 54.34 258.0
-166.5 49.36 258.0
-163.5 42.17 258.0
-160.5 30.3 258.0
-157.5 17.11 258.0
-154.5 17.37 258.0
-151.5 15.5 258.0
-148.5 16.42 258.0
-130.5 33.87 258.0
-127.5 32.13 258.0
-124.5 37.12 258.0
-121.5 37.97 258.0
-118.5 28.56 258.0
-109.5 46.14 258.0
-103.5 59.07 258.0
-100.5 56.67 258.0
-97.5 50.64 258.0
-298.5 34.46 261.0
-295.5 41.84 261.0
-292.5 26.95 261.0
-289.5 27.57 261.0
-286.5 24.0 261.0
-283.5 40.17 261.0
-280.5 40.2 261.0
-277.5 44.9 261.0
-274.5 43.09 261.0
-271.5 48.11 261.0
-268.5 45.85 261.0
-265.5 43.88 261.0
-262.5 90.24 261.0
-259.5 86.17 261.0
-256.5 41.94 261.0
-253.5 63.83 261.0
-250.5 81.97 261.0
-247.5 85.05 261.0
-244.5 85.28 261.0
-241.5 79.54 261.0
-238.5 25.11 261.0
-235.5 24.16 261.0
-232.5 24.65 261.0
-229.5 26.36 261.0
-226.5 21.8 261.0
-223.5 24.29 261.0
-220.5 20.65 261.0
-217.5 19.08 261.0
-214.5 19.47 261.0
-211.5 31.21 261.0
-208.5 41.12 261.0
-205.5 38.01 261.0
-202.5 42.76 261.0
-199.5 42.4 261.0
-196.5 44.08 261.0
-193.5 45.16 261.0
-190.5 45.52 261.0
-187.5 52.24 261.0
-184.5 49.78 261.0
-181.5 55.79 261.0
-178.5 53.36 261.0
-175.5 56.28 261.0
-172.5 56.35 261.0
-169.5 54.61 261.0
-166.5 52.64 261.0
-163.5 41.94 261.0
-160.5 30.2 261.0
-157.5 17.34 261.0
-154.5 18.65 261.0
-151.5 16.81 261.0
-148.5 17.37 261.0
-145.5 16.84 261.0
-142.5 16.25 261.0
-139.5 18.35 261.0
-136.5 30.89 261.0
-133.5 40.3 261.0
-130.5 37.45 261.0
-127.5 41.45 261.0
-124.5 42.66 261.0
-121.5 37.38 261.0
-118.5 29.48 261.0
-115.5 29.44 261.0
-112.5 50.37 261.0
-109.5 53.92 261.0
-106.5 58.12 261.0
-103.5 56.48 261.0
-100.5 72.95 261.0
-97.5 70.65 261.0
-298.5 43.52 264.0
-295.5 42.21 264.0
-292.5 39.22 264.0
-289.5 37.55 264.0
-286.5 37.35 264.0
-283.5 40.07 264.0
-280.5 41.65 264.0
-277.5 43.16 264.0
-274.5 44.96 264.0
-271.5 48.05 264.0
-268.5 86.14 264.0
-265.5 91.12 264.0
-262.5 90.96 264.0
-259.5 92.27 264.0
-256.5 86.46 264.0
-253.5 84.1 264.0
-250.5 99.39 264.0
-247.5 98.67 264.0
-244.5 92.27 264.0
-241.5 90.86 264.0
-238.5 88.76 264.0
-235.5 23.87 264.0
-232.5 59.89 264.0
-229.5 65.73 264.0
-226.5 63.37 264.0
-223.5 29.05 264.0
-220.5 19.24 264.0
-214.5 31.71 264.0
-211.5 33.77 264.0
-208.5 46.96 264.0
-205.5 49.26 264.0
-202.5 48.44 264.0
-199.5 41.98 264.0
-196.5 42.37 264.0
-193.5 46.14 264.0
-190.5 47.39 264.0
-187.5 51.72 264.0
-184.5 58.35 264.0
-181.5 57.63 264.0
-178.5 56.18 264.0
-175.5 56.12 264.0
-172.5 58.41 264.0
-169.5 52.24 264.0
-166.5 50.97 264.0
-163.5 41.48 264.0
-160.5 42.34 264.0
-157.5 17.7 264.0
-154.5 18.22 264.0
-151.5 17.99 264.0
-148.5 18.35 264.0
-145.5 26.56 264.0
-142.5 28.98 264.0
-139.5 21.08 264.0
-136.5 35.25 264.0
-133.5 44.7 264.0
-130.5 52.24 264.0
-127.5 54.8 264.0
-124.5 49.16 264.0
-121.5 50.05 264.0
-118.5 35.02 264.0
-115.5 34.59 264.0
-112.5 47.95 264.0
-109.5 64.25 264.0
-106.5 62.42 264.0
-103.5 70.03 264.0
-100.5 71.77 264.0
-298.5 43.42 267.0
-295.5 42.3 267.0
-292.5 40.14 267.0
-289.5 38.01 267.0
-286.5 39.74 267.0
-283.5 41.98 267.0
-280.5 46.17 267.0
-277.5 46.8 267.0
-274.5 47.91 267.0
-271.5 47.75 267.0
-268.5 91.48 267.0
-265.5 91.09 267.0
-262.5 91.61 267.0
-259.5 93.62 267.0
-256.5 101.79 267.0
-253.5 100.37 267.0
-250.5 99.72 267.0
-247.5 100.47 267.0
-244.5 101.52 267.0
-241.5 91.19 267.0
-238.5 90.73 267.0
-235.5 59.23 267.0
-232.5 60.61 267.0
-229.5 66.48 267.0
-226.5 65.7 267.0
-223.5 64.71 267.0
-220.5 65.93 267.0
-217.5 34.04 267.0
-214.5 35.32 267.0
-211.5 42.34 267.0
-208.5 46.31 267.0
-205.5 47.95 267.0
-202.5 47.62 267.0
-199.5 65.93 267.0
-196.5 44.08 267.0
-193.5 79.64 267.0
-190.5 42.6 267.0
-187.5 46.57 267.0
-184.5 53.39 267.0
-181.5 56.51 267.0
-178.5 58.08 267.0
-175.5 59.66 267.0
-172.5 58.45 267.0
-169.5 58.54 267.0
-166.5 52.47 267.0
-163.5 52.93 267.0
-160.5 41.02 267.0
-157.5 41.58 267.0
-154.5 18.94 267.0
-151.5 18.06 267.0
-148.5 23.5 267.0
-145.5 25.87 267.0
-142.5 26.65 267.0
-139.5 25.14 267.0
-136.5 40.89 267.0
-133.5 49.09 267.0
-130.5 51.26 267.0
-127.5 57.2 267.0
-124.5 53.95 267.0
-121.5 49.09 267.0
-118.5 51.39 267.0
-115.5 50.37 267.0
-112.5 68.39 267.0
-109.5 66.55 267.0
-106.5 61.23 267.0
-103.5 81.87 267.0
-100.5 85.05 267.0
-298.5 41.81 270.0
-295.5 41.91 270.0
-292.5 36.63 270.0
-289.5 36.79 270.0
-286.5 38.83 270.0
-283.5 46.67 270.0
-280.5 46.27 270.0
-277.5 49.95 270.0
-274.5 49.46 270.0
-271.5 99.36 270.0
-268.5 99.72 270.0
-265.5 100.6 270.0
-262.5 97.82 270.0
-259.5 99.95 270.0
-256.5 104.21 270.0
-253.5 102.9 270.0
-250.5 103.52 270.0
-247.5 100.47 270.0
-244.5 98.83 270.0
-241.5 96.17 270.0
-238.5 89.94 270.0
-235.5 87.35 270.0
-232.5 61.53 270.0
-229.5 126.23 270.0
-226.5 126.79 270.0
-223.5 67.89 270.0
-220.5 65.43 270.0
-217.5 28.29 270.0
-214.5 44.08 270.0
-211.5 42.4 270.0
-208.5 48.57 270.0
-205.5 48.14 270.0
-202.5 65.96 270.0
-199.5 67.53 270.0
-196.5 81.54 270.0
-193.5 80.95 270.0
-190.5 81.67 270.0
-187.5 76.65 270.0
-184.5 46.83 270.0
-181.5 56.44 270.0
-178.5 55.56 270.0
-175.5 59.33 270.0
-172.5 57.92 270.0
-169.5 52.34 270.0
-166.5 52.31 270.0
-163.5 48.96 270.0
-160.5 43.71 270.0
-157.5 18.62 270.0
-154.5 20.52 270.0
-151.5 21.6 270.0
-148.5 21.6 270.0
-145.5 24.72 270.0
-142.5 24.42 270.0
-139.5 36.76 270.0
-136.5 41.02 270.0
-133.5 50.44 270.0
-130.5 57.43 270.0
-127.5 63.73 270.0
-124.5 62.12 270.0
-121.5 53.75 270.0
-118.5 53.06 270.0
-115.5 62.25 270.0
-112.5 66.48 270.0
-109.5 66.55 270.0
-106.5 76.59 270.0
-103.5 78.85 270.0
-298.5 63.27 273.0
-295.5 37.22 273.0
-292.5 39.15 273.0
-289.5 45.78 273.0
-286.5 42.7 273.0
-283.5 45.35 273.0
-280.5 46.9 273.0
-277.5 48.41 273.0
-274.5 46.11 273.0
-271.5 98.73 273.0
-268.5 99.72 273.0
-265.5 100.6 273.0
-262.5 111.59 273.0
-259.5 111.89 273.0
-256.5 105.16 273.0
-253.5 104.84 273.0
-250.5 101.62 273.0
-247.5 103.82 273.0
-244.5 102.18 273.0
-241.5 104.84 273.0
-238.5 89.61 273.0
-235.5 86.82 273.0
-232.5 62.61 273.0
-229.5 125.93 273.0
-226.5 128.82 273.0
-223.5 126.85 273.0
-220.5 128.69 273.0
-217.5 34.07 273.0
-214.5 43.29 273.0
-211.5 116.45 273.0
-208.5 109.82 273.0
-205.5 62.87 273.0
-202.5 70.78 273.0
-199.5 74.82 273.0
-196.5 82.56 273.0
-193.5 82.53 273.0
-190.5 88.1 273.0
-187.5 84.27 273.0
-184.5 78.49 273.0
-181.5 51.46 273.0
-178.5 52.01 273.0
-175.5 56.08 273.0
-172.5 57.33 273.0
-169.5 52.61 273.0
-166.5 51.0 273.0
-163.5 44.86 273.0
-160.5 42.04 273.0
-157.5 33.87 273.0
-154.5 18.71 273.0
-151.5 19.01 273.0
-148.5 23.5 273.0
-145.5 20.68 273.0
-142.5 20.58 273.0
-139.5 17.27 273.0
-136.5 44.67 273.0
-133.5 55.79 273.0
-130.5 61.1 273.0
-127.5 62.94 273.0
-124.5 57.36 273.0
-121.5 56.31 273.0
-118.5 57.07 273.0
-115.5 63.33 273.0
-112.5 65.27 273.0
-109.5 64.74 273.0
-106.5 75.11 273.0
-103.5 91.75 273.0
-298.5 62.12 276.0
-295.5 62.09 276.0
-292.5 43.65 276.0
-289.5 46.57 276.0
-286.5 43.35 276.0
-283.5 42.34 276.0
-280.5 44.99 276.0
-277.5 48.41 276.0
-274.5 44.21 276.0
-271.5 51.19 276.0
-268.5 98.31 276.0
-265.5 116.84 276.0
-262.5 113.83 276.0
-259.5 116.45 276.0
-256.5 113.4 276.0
-253.5 107.43 276.0
-250.5 105.66 276.0
-247.5 106.58 276.0
-244.5 136.3 276.0
-241.5 136.14 276.0
-238.5 137.02 276.0
-235.5 136.1 276.0
-232.5 136.5 276.0
-229.5 126.88 276.0
-226.5 128.03 276.0
-223.5 127.93 276.0
-220.5 80.43 276.0
-217.5 34.2 276.0
-214.5 117.37 276.0
-211.5 116.75 276.0
-208.5 116.61 276.0
-205.5 74.09 276.0
-202.5 74.69 276.0
-199.5 76.49 276.0
-196.5 88.89 276.0
-193.5 91.52 276.0
-190.5 93.98 276.0
-187.5 93.62 276.0
-184.5 92.6 276.0
-181.5 85.22 276.0
-178.5 49.06 276.0
-175.5 54.84 276.0
-172.5 55.62 276.0
-169.5 53.03 276.0
-166.5 45.88 276.0
-163.5 46.57 276.0
-160.5 37.91 276.0
-157.5 33.15 276.0
-154.5 18.71 276.0
-151.5 19.17 276.0
-148.5 19.86 276.0
-145.5 20.62 276.0
-142.5 17.86 276.0
-139.5 26.06 276.0
-136.5 41.32 276.0
-133.5 40.37 276.0
-130.5 51.95 276.0
-127.5 61.3 276.0
-124.5 57.85 276.0
-121.5 55.03 276.0
-118.5 59.43 276.0
-115.5 63.99 276.0
-112.5 64.88 276.0
-109.5 64.19 276.0
-106.5 71.9 276.0
-298.5 72.03 279.0
-295.5 59.63 279.0
-292.5 72.26 279.0
-289.5 65.53 279.0
-286.5 43.52 279.0
-283.5 53.03 279.0
-280.5 57.13 279.0
-277.5 55.36 279.0
-274.5 51.79 279.0
-271.5 99.42 279.0
-268.5 115.73 279.0
-265.5 116.68 279.0
-262.5 119.44 279.0
-259.5 116.09 279.0
-256.5 116.88 279.0
-253.5 104.57 279.0
-250.5 106.18 279.0
-247.5 103.69 279.0
-244.5 136.99 279.0
-241.5 139.32 279.0
-238.5 135.64 279.0
-235.5 137.64 279.0
-232.5 137.12 279.0
-229.5 127.61 279.0
-226.5 127.67 279.0
-223.5 128.03 279.0
-220.5 81.71 279.0
-217.5 83.12 279.0
-214.5 118.42 279.0
-211.5 116.02 279.0
-208.5 117.99 279.0
-205.5 117.53 279.0
-202.5 116.32 279.0
-199.5 89.02 279.0
-196.5 90.11 279.0
-193.5 94.37 279.0
-190.5 94.9 279.0
-187.5 94.99 279.0
-184.5 94.04 279.0
-181.5 91.42 279.0
-178.5 76.39 279.0
-175.5 75.47 279.0
-172.5 52.15 279.0
-169.5 52.67 279.0
-166.5 36.59 279.0
-163.5 20.68 279.0
-160.5 19.17 279.0
-151.5 24.78 279.0
-148.5 24.0 279.0
-145.5 25.14 279.0
-142.5 23.05 279.0
-139.5 30.79 279.0
-136.5 36.0 279.0
-133.5 38.14 279.0
-130.5 49.23 279.0
-127.5 47.32 279.0
-124.5 48.01 279.0
-121.5 54.31 279.0
-118.5 56.44 279.0
-115.5 61.5 279.0
-112.5 64.42 279.0
-109.5 65.34 279.0
-298.5 85.25 282.0
-295.5 85.18 282.0
-292.5 73.5 282.0
-289.5 74.59 282.0
-286.5 37.09 282.0
-283.5 33.51 282.0
-280.5 52.38 282.0
-277.5 56.44 282.0
-274.5 96.34 282.0
-271.5 101.26 282.0
-268.5 116.29 282.0
-265.5 116.71 282.0
-262.5 117.73 282.0
-259.5 120.85 282.0
-256.5 105.66 282.0
-253.5 106.54 282.0
-250.5 105.85 282.0
-247.5 103.13 282.0
-244.5 137.68 282.0
-241.5 138.99 282.0
-238.5 137.02 282.0
-235.5 136.63 282.0
-232.5 136.79 282.0
-229.5 123.37 282.0
-226.5 127.41 282.0
-223.5 125.6 282.0
-220.5 92.66 282.0
-217.5 116.52 282.0
-214.5 116.22 282.0
-211.5 115.17 282.0
-208.5 116.29 282.0
-205.5 117.8 282.0
-202.5 116.61 282.0
-199.5 92.4 282.0
-196.5 93.98 282.0
-193.5 93.68 282.0
-190.5 95.52 282.0
-187.5 95.35 282.0
-184.5 95.06 282.0
-181.5 94.47 282.0
-178.5 92.04 282.0
-175.5 77.67 282.0
-172.5 42.27 282.0
-169.5 22.19 282.0
-166.5 22.19 282.0
-163.5 18.58 282.0
-160.5 18.48 282.0
-157.5 22.32 282.0
-154.5 21.57 282.0
-151.5 19.96 282.0
-148.5 42.57 282.0
-145.5 44.9 282.0
-142.5 40.96 282.0
-139.5 27.08 282.0
-136.5 28.82 282.0
-133.5 39.58 282.0
-130.5 45.19 282.0
-127.5 40.6 282.0
-124.5 43.35 282.0
-121.5 43.19 282.0
-118.5 64.78 282.0
-115.5 61.69 282.0
-112.5 59.95 282.0
-298.5 85.58 285.0
-295.5 85.15 285.0
-292.5 81.9 285.0
-289.5 70.29 285.0
-286.5 36.1 285.0
-283.5 50.93 285.0
-280.5 54.67 285.0
-277.5 54.21 285.0
-274.5 99.03 285.0
-271.5 112.87 285.0
-268.5 115.17 285.0
-265.5 116.35 285.0
-262.5 120.75 285.0
-259.5 119.08 285.0
-256.5 121.54 285.0
-253.5 119.99 285.0
-250.5 106.38 285.0
-247.5 125.83 285.0
-244.5 140.47 285.0
-241.5 140.56 285.0
-238.5 138.4 285.0
-235.5 135.55 285.0
-232.5 133.48 285.0
-229.5 124.72 285.0
-226.5 126.39 285.0
-223.5 125.31 285.0
-220.5 113.14 285.0
-217.5 114.38 285.0
-214.5 113.27 285.0
-211.5 129.57 285.0
-208.5 110.68 285.0
-205.5 80.2 285.0
-202.5 116.25 285.0
-199.5 92.47 285.0
-196.5 92.93 285.0
-193.5 93.09 285.0
-190.5 94.27 285.0
-187.5 95.09 285.0
-184.5 93.88 285.0
-181.5 94.27 285.0
-178.5 93.06 285.0
-175.5 78.59 285.0
-172.5 21.54 285.0
-169.5 22.26 285.0
-166.5 20.95 285.0
-163.5 19.9 285.0
-160.5 19.73 285.0
-157.5 47.09 285.0
-154.5 47.45 285.0
-151.5 48.77 285.0
-148.5 44.8 285.0
-145.5 44.47 285.0
-142.5 42.53 285.0
-139.5 38.73 285.0
-136.5 30.36 285.0
-133.5 30.82 285.0
-130.5 31.35 285.0
-127.5 42.21 285.0
-124.5 39.81 285.0
-121.5 43.35 285.0
-118.5 63.96 285.0
-115.5 62.19 285.0
-298.5 90.07 288.0
-295.5 86.79 288.0
-292.5 81.67 288.0
-289.5 75.77 288.0
-286.5 78.72 288.0
-283.5 57.0 288.0
-280.5 61.53 288.0
-277.5 57.17 288.0
-274.5 61.66 288.0
-271.5 111.46 288.0
-268.5 116.06 288.0
-265.5 118.09 288.0
-262.5 119.73 288.0
-259.5 122.65 288.0
-256.5 123.37 288.0
-253.5 119.34 288.0
-250.5 113.69 288.0
-247.5 112.02 288.0
-244.5 139.97 288.0
-241.5 139.97 288.0
-238.5 135.12 288.0
-235.5 133.84 288.0
-232.5 129.38 288.0
-229.5 122.78 288.0
-226.5 126.82 288.0
-223.5 122.0 288.0
-220.5 132.66 288.0
-217.5 132.49 288.0
-214.5 133.31 288.0
-211.5 134.53 288.0
-208.5 109.86 288.0
-205.5 108.28 288.0
-202.5 81.64 288.0
-199.5 91.16 288.0
-196.5 92.5 288.0
-193.5 84.92 288.0
-190.5 93.65 288.0
-187.5 93.94 288.0
-184.5 93.81 288.0
-181.5 93.35 288.0
-178.5 92.37 288.0
-175.5 79.31 288.0
-172.5 70.65 288.0
-169.5 70.42 288.0
-166.5 21.34 288.0
-163.5 21.37 288.0
-160.5 23.6 288.0
-157.5 47.29 288.0
-154.5 48.54 288.0
-151.5 50.28 288.0
-148.5 50.44 288.0
-145.5 50.47 288.0
-142.5 51.19 288.0
-139.5 49.62 288.0
-136.5 40.37 288.0
-133.5 40.47 288.0
-130.5 33.45 288.0
-127.5 34.13 288.0
-124.5 34.2 288.0
-121.5 39.61 288.0
-118.5 39.84 288.0
-298.5 90.53 291.0
-295.5 90.2 291.0
-292.5 90.2 291.0
-289.5 83.64 291.0
-286.5 85.77 291.0
-283.5 48.93 291.0
-280.5 65.89 291.0
-277.5 67.11 291.0
-274.5 116.88 291.0
-271.5 118.75 291.0
-268.5 100.47 291.0
-265.5 110.22 291.0
-262.5 128.36 291.0
-259.5 131.97 291.0
-256.5 131.31 291.0
-253.5 127.84 291.0
-250.5 125.7 291.0
-247.5 112.68 291.0
-244.5 138.4 291.0
-241.5 137.94 291.0
-238.5 128.79 291.0
-235.5 125.34 291.0
-232.5 123.77 291.0
-229.5 122.59 291.0
-226.5 122.72 291.0
-223.5 116.88 291.0
-220.5 124.06 291.0
-217.5 135.55 291.0
-214.5 137.84 291.0
-211.5 134.46 291.0
-208.5 77.38 291.0
-205.5 78.43 291.0
-202.5 79.38 291.0
-199.5 85.64 291.0
-196.5 88.79 291.0
-193.5 77.08 291.0
-190.5 93.94 291.0
-187.5 93.12 291.0
-184.5 91.75 291.0
-181.5 90.34 291.0
-178.5 90.2 291.0
-175.5 88.69 291.0
-172.5 71.21 291.0
-169.5 69.96 291.0
-166.5 66.94 291.0
-163.5 27.24 291.0
-160.5 24.82 291.0
-157.5 47.36 291.0
-154.5 50.05 291.0
-151.5 48.14 291.0
-148.5 51.33 291.0
-145.5 52.05 291.0
-142.5 50.51 291.0
-139.5 49.55 291.0
-136.5 47.26 291.0
-133.5 46.83 291.0
-130.5 37.19 291.0
-127.5 36.04 291.0
-124.5 34.3 291.0
-121.5 46.73 291.0
-118.5 49.82 291.0
-298.5 91.84 294.0
-295.5 90.2 294.0
-292.5 90.01 294.0
-289.5 85.28 294.0
-286.5 85.61 294.0
-283.5 79.18 294.0
-280.5 75.83 294.0
-277.5 58.38 294.0
-274.5 123.47 294.0
-271.5 121.34 294.0
-268.5 121.67 294.0
-265.5 132.72 294.0
-262.5 132.2 294.0
-259.5 136.43 294.0
-256.5 136.59 294.0
-253.5 129.25 294.0
-250.5 122.03 294.0
-247.5 118.68 294.0
-244.5 127.64 294.0
-241.5 129.41 294.0
-238.5 128.46 294.0
-235.5 126.49 294.0
-232.5 119.53 294.0
-229.5 118.45 294.0
-226.5 137.81 294.0
-223.5 139.81 294.0
-220.5 140.73 294.0
-217.5 141.16 294.0
-214.5 137.42 294.0
-211.5 130.13 294.0
-208.5 74.55 294.0
-205.5 76.23 294.0
-202.5 76.75 294.0
-199.5 75.34 294.0
-196.5 88.56 294.0
-193.5 89.35 294.0
-190.5 90.43 294.0
-187.5 89.35 294.0
-184.5 88.04 294.0
-181.5 86.92 294.0
-178.5 87.58 294.0
-175.5 74.72 294.0
-172.5 70.81 294.0
-169.5 69.99 294.0
-166.5 65.01 294.0
-163.5 29.08 294.0
-160.5 65.14 294.0
-157.5 64.32 294.0
-154.5 44.17 294.0
-151.5 49.46 294.0
-148.5 51.0 294.0
-145.5 53.06 294.0
-142.5 52.84 294.0
-139.5 53.0 294.0
-136.5 55.46 294.0
-133.5 53.98 294.0
-130.5 37.38 294.0
-127.5 32.72 294.0
-124.5 41.58 294.0
-121.5 43.48 294.0
-298.5 91.94 297.0
-295.5 91.81 297.0
-292.5 91.75 297.0
-289.5 84.79 297.0
-286.5 82.36 297.0
-283.5 82.07 297.0
-280.5 82.49 297.0
-277.5 123.37 297.0
-274.5 124.69 297.0
-271.5 124.85 297.0
-268.5 122.13 297.0
-265.5 120.39 297.0
-262.5 133.28 297.0
-259.5 139.19 297.0
-256.5 135.64 297.0
-253.5 132.4 297.0
-250.5 132.3 297.0
-247.5 117.8 297.0
-244.5 114.35 297.0
-241.5 126.49 297.0
-238.5 125.51 297.0
-235.5 124.29 297.0
-232.5 123.9 297.0
-229.5 136.73 297.0
