ply
format ascii 1.0
comment Original LiDAR: USGS National Dataset
comment Cropped and converted to PLY by CloudCompare v2.11 alpha (Anoia)
comment Converted from original position to centered position by Chris Calef.
element vertex 2875
property float x
property float y
property float z
end_header
-160.5 17.88 -57.0
-157.5 11.52 -57.0
-154.5 14.44 -57.0
-151.5 14.14 -57.0
-148.5 14.24 -57.0
-145.5 12.7 -57.0
-142.5 7.38 -57.0
-139.5 13.75 -57.0
-136.5 7.97 -57.0
-133.5 6.66 -57.0
-130.5 7.35 -57.0
-127.5 7.78 -57.0
-124.5 7.38 -57.0
-121.5 6.5 -57.0
-118.5 6.56 -57.0
-115.5 4.63 -57.0
-112.5 6.56 -57.0
-109.5 6.33 -57.0
-106.5 6.14 -57.0
-103.5 5.58 -57.0
-100.5 5.12 -57.0
-97.5 5.41 -57.0
-94.5 5.74 -57.0
-91.5 4.66 -57.0
-88.5 3.67 -57.0
-85.5 3.54 -57.0
-82.5 3.12 -57.0
43.5 31.92 -57.0
46.5 39.96 -57.0
49.5 45.34 -57.0
52.5 45.51 -57.0
55.5 44.95 -57.0
58.5 45.8 -57.0
61.5 47.01 -57.0
64.5 49.74 -57.0
67.5 53.28 -57.0
70.5 55.09 -57.0
73.5 53.71 -57.0
76.5 53.45 -57.0
79.5 47.97 -57.0
82.5 37.8 -57.0
274.5 21.56 -57.0
277.5 17.16 -57.0
289.5 12.01 -57.0
292.5 13.19 -57.0
295.5 14.5 -57.0
301.5 10.01 -57.0
-202.5 6.04 -54.0
-199.5 8.53 -54.0
-196.5 13.91 -54.0
-193.5 7.45 -54.0
-190.5 10.66 -54.0
-187.5 9.02 -54.0
-184.5 14.47 -54.0
-181.5 14.04 -54.0
-178.5 14.63 -54.0
-175.5 14.21 -54.0
-172.5 16.24 -54.0
-169.5 14.9 -54.0
-166.5 15.85 -54.0
-163.5 13.62 -54.0
-160.5 9.91 -54.0
-157.5 12.86 -54.0
-154.5 13.35 -54.0
-151.5 14.14 -54.0
-148.5 13.58 -54.0
-145.5 14.63 -54.0
-142.5 18.83 -54.0
-139.5 14.96 -54.0
-136.5 14.83 -54.0
-133.5 6.89 -54.0
-130.5 7.12 -54.0
-127.5 6.14 -54.0
-124.5 7.45 -54.0
-121.5 6.04 -54.0
-118.5 6.4 -54.0
-115.5 4.86 -54.0
-112.5 6.76 -54.0
-109.5 6.5 -54.0
-106.5 7.02 -54.0
-103.5 7.15 -54.0
-100.5 6.0 -54.0
-97.5 6.63 -54.0
-94.5 6.92 -54.0
-91.5 6.27 -54.0
-88.5 6.37 -54.0
-85.5 6.4 -54.0
-82.5 4.4 -54.0
-79.5 4.59 -54.0
-76.5 3.97 -54.0
55.5 20.34 -54.0
58.5 35.01 -54.0
61.5 33.92 -54.0
64.5 41.8 -54.0
67.5 38.45 -54.0
70.5 43.11 -54.0
73.5 44.32 -54.0
76.5 45.6 -54.0
244.5 7.09 -54.0
247.5 8.83 -54.0
250.5 8.14 -54.0
253.5 9.06 -54.0
256.5 9.81 -54.0
259.5 9.15 -54.0
262.5 9.09 -54.0
265.5 9.29 -54.0
268.5 9.19 -54.0
271.5 9.81 -54.0
283.5 9.09 -54.0
286.5 14.4 -54.0
289.5 14.6 -54.0
292.5 14.21 -54.0
295.5 14.99 -54.0
298.5 15.39 -54.0
301.5 13.94 -54.0
304.5 12.43 -54.0
307.5 9.68 -54.0
-199.5 5.68 -51.0
-196.5 8.37 -51.0
-193.5 8.33 -51.0
-190.5 8.76 -51.0
-187.5 11.09 -51.0
-184.5 11.09 -51.0
-181.5 8.24 -51.0
-178.5 9.58 -51.0
-175.5 11.55 -51.0
-172.5 12.83 -51.0
-169.5 13.62 -51.0
-166.5 13.09 -51.0
-163.5 10.96 -51.0
-160.5 12.83 -51.0
-157.5 14.3 -51.0
-154.5 13.25 -51.0
-151.5 12.37 -51.0
-148.5 10.3 -51.0
-145.5 21.13 -51.0
-142.5 22.01 -51.0
-139.5 17.91 -51.0
-136.5 22.38 -51.0
-133.5 19.36 -51.0
-130.5 18.47 -51.0
-127.5 6.37 -51.0
-124.5 6.14 -51.0
-121.5 6.99 -51.0
-118.5 6.3 -51.0
-115.5 5.15 -51.0
-112.5 5.87 -51.0
-109.5 6.76 -51.0
-106.5 6.79 -51.0
-103.5 6.4 -51.0
-100.5 5.87 -51.0
-97.5 6.17 -51.0
-94.5 7.05 -51.0
-91.5 6.82 -51.0
-88.5 6.53 -51.0
-85.5 6.5 -51.0
-82.5 5.15 -51.0
-79.5 5.68 -51.0
-76.5 6.0 -51.0
-73.5 3.87 -51.0
-70.5 2.92 -51.0
241.5 8.63 -51.0
244.5 8.53 -51.0
247.5 8.96 -51.0
250.5 9.48 -51.0
253.5 8.99 -51.0
256.5 12.83 -51.0
259.5 12.43 -51.0
262.5 9.29 -51.0
265.5 9.12 -51.0
268.5 9.78 -51.0
271.5 9.97 -51.0
274.5 8.43 -51.0
283.5 10.6 -51.0
286.5 15.26 -51.0
289.5 14.8 -51.0
292.5 15.32 -51.0
295.5 14.73 -51.0
298.5 15.49 -51.0
301.5 14.93 -51.0
304.5 13.16 -51.0
307.5 13.62 -51.0
310.5 10.83 -51.0
-193.5 7.02 -48.0
-190.5 7.42 -48.0
-187.5 8.14 -48.0
-184.5 9.71 -48.0
-181.5 10.37 -48.0
-178.5 10.37 -48.0
-175.5 10.04 -48.0
-172.5 11.35 -48.0
-169.5 12.6 -48.0
-166.5 11.45 -48.0
-163.5 8.43 -48.0
-160.5 9.58 -48.0
-157.5 9.29 -48.0
-154.5 8.1 -48.0
-151.5 8.07 -48.0
-148.5 8.6 -48.0
-145.5 20.37 -48.0
-142.5 21.59 -48.0
-139.5 18.7 -48.0
-136.5 23.33 -48.0
-133.5 21.88 -48.0
-130.5 17.91 -48.0
-127.5 11.12 -48.0
-124.5 13.12 -48.0
-121.5 12.4 -48.0
-118.5 14.21 -48.0
-115.5 12.11 -48.0
-112.5 5.15 -48.0
-109.5 5.77 -48.0
-106.5 6.46 -48.0
-103.5 5.18 -48.0
-100.5 5.74 -48.0
-97.5 6.82 -48.0
-94.5 6.86 -48.0
-91.5 6.5 -48.0
-88.5 6.4 -48.0
-85.5 6.27 -48.0
-82.5 5.91 -48.0
-79.5 6.79 -48.0
-76.5 6.37 -48.0
-73.5 5.45 -48.0
-70.5 3.87 -48.0
-67.5 2.85 -48.0
-64.5 3.08 -48.0
-61.5 3.28 -48.0
238.5 8.07 -48.0
241.5 8.53 -48.0
244.5 8.07 -48.0
247.5 8.92 -48.0
250.5 9.51 -48.0
253.5 7.09 -48.0
259.5 7.12 -48.0
262.5 8.2 -48.0
265.5 8.27 -48.0
268.5 8.79 -48.0
271.5 8.92 -48.0
274.5 7.97 -48.0
280.5 15.81 -48.0
283.5 16.14 -48.0
286.5 15.29 -48.0
289.5 15.12 -48.0
292.5 16.31 -48.0
295.5 16.77 -48.0
298.5 16.04 -48.0
301.5 15.12 -48.0
304.5 13.58 -48.0
307.5 12.89 -48.0
310.5 11.61 -48.0
-190.5 3.54 -45.0
-178.5 4.4 -45.0
-175.5 4.46 -45.0
-172.5 10.86 -45.0
-169.5 9.12 -45.0
-166.5 5.54 -45.0
-163.5 8.07 -45.0
-160.5 8.04 -45.0
-157.5 7.55 -45.0
-154.5 7.15 -45.0
-151.5 7.94 -45.0
-148.5 7.68 -45.0
-145.5 15.62 -45.0
-142.5 19.26 -45.0
-139.5 16.21 -45.0
-136.5 18.41 -45.0
-133.5 21.23 -45.0
-130.5 14.01 -45.0
-127.5 7.25 -45.0
-124.5 12.73 -45.0
-121.5 12.99 -45.0
-118.5 14.4 -45.0
-115.5 12.14 -45.0
-112.5 5.71 -45.0
-109.5 6.07 -45.0
-106.5 6.99 -45.0
-103.5 5.74 -45.0
-100.5 4.43 -45.0
-97.5 6.3 -45.0
-94.5 6.43 -45.0
-91.5 6.14 -45.0
-88.5 6.37 -45.0
-85.5 6.96 -45.0
-82.5 5.71 -45.0
-79.5 5.94 -45.0
-76.5 5.84 -45.0
-73.5 5.12 -45.0
-70.5 4.17 -45.0
-67.5 6.17 -45.0
-64.5 5.81 -45.0
-61.5 3.58 -45.0
-58.5 3.77 -45.0
-55.5 2.95 -45.0
-52.5 3.54 -45.0
-49.5 2.66 -45.0
241.5 9.42 -45.0
244.5 8.27 -45.0
247.5 9.12 -45.0
250.5 8.04 -45.0
259.5 7.81 -45.0
262.5 7.71 -45.0
265.5 7.09 -45.0
268.5 7.64 -45.0
271.5 8.76 -45.0
274.5 7.32 -45.0
277.5 7.32 -45.0
280.5 10.6 -45.0
283.5 20.57 -45.0
286.5 19.72 -45.0
289.5 16.6 -45.0
292.5 15.85 -45.0
295.5 16.27 -45.0
298.5 16.83 -45.0
301.5 14.37 -45.0
304.5 14.01 -45.0
307.5 13.91 -45.0
310.5 12.83 -45.0
313.5 10.2 -45.0
340.5 9.84 -45.0
364.5 9.58 -45.0
370.5 17.88 -45.0
373.5 28.02 -45.0
-169.5 3.64 -42.0
-160.5 4.95 -42.0
-157.5 4.36 -42.0
-154.5 3.51 -42.0
-151.5 7.58 -42.0
-148.5 7.74 -42.0
-145.5 7.38 -42.0
-142.5 17.78 -42.0
-139.5 11.84 -42.0
-136.5 5.87 -42.0
-133.5 6.37 -42.0
-130.5 7.71 -42.0
-127.5 7.25 -42.0
-124.5 7.19 -42.0
-121.5 13.94 -42.0
-118.5 13.48 -42.0
-115.5 10.47 -42.0
-112.5 6.73 -42.0
-109.5 5.02 -42.0
-106.5 6.43 -42.0
-103.5 6.14 -42.0
-100.5 5.28 -42.0
-97.5 4.59 -42.0
-94.5 4.59 -42.0
-91.5 4.82 -42.0
-88.5 5.45 -42.0
-85.5 5.97 -42.0
-82.5 6.04 -42.0
-79.5 5.05 -42.0
-76.5 5.02 -42.0
-73.5 5.28 -42.0
-70.5 4.56 -42.0
-67.5 5.84 -42.0
-64.5 6.37 -42.0
-61.5 5.38 -42.0
-58.5 3.64 -42.0
-55.5 3.67 -42.0
-52.5 3.81 -42.0
-49.5 3.9 -42.0
-46.5 2.99 -42.0
-43.5 2.82 -42.0
-40.5 2.79 -42.0
241.5 7.38 -42.0
244.5 9.38 -42.0
247.5 8.33 -42.0
250.5 7.68 -42.0
253.5 8.37 -42.0
256.5 7.35 -42.0
259.5 7.48 -42.0
262.5 7.42 -42.0
265.5 7.45 -42.0
268.5 7.45 -42.0
271.5 7.58 -42.0
277.5 7.35 -42.0
280.5 16.14 -42.0
283.5 20.7 -42.0
286.5 18.93 -42.0
289.5 13.98 -42.0
292.5 14.63 -42.0
295.5 16.11 -42.0
298.5 15.06 -42.0
301.5 13.62 -42.0
304.5 13.85 -42.0
307.5 13.75 -42.0
310.5 12.5 -42.0
313.5 11.81 -42.0
343.5 9.58 -42.0
349.5 9.68 -42.0
367.5 22.87 -42.0
370.5 29.89 -42.0
373.5 30.87 -42.0
376.5 30.28 -42.0
379.5 28.08 -42.0
-151.5 6.14 -39.0
-148.5 5.09 -39.0
-145.5 4.2 -39.0
-142.5 9.15 -39.0
-139.5 6.86 -39.0
-136.5 5.09 -39.0
-133.5 5.15 -39.0
-130.5 5.02 -39.0
-127.5 4.33 -39.0
-112.5 4.79 -39.0
-109.5 4.53 -39.0
-106.5 4.95 -39.0
-103.5 4.33 -39.0
-100.5 4.0 -39.0
-97.5 3.12 -39.0
-94.5 4.17 -39.0
-91.5 4.95 -39.0
-88.5 4.1 -39.0
-85.5 4.27 -39.0
-82.5 4.86 -39.0
-79.5 4.1 -39.0
-76.5 3.64 -39.0
-73.5 4.2 -39.0
-70.5 3.48 -39.0
-67.5 4.89 -39.0
-64.5 4.99 -39.0
-61.5 2.95 -39.0
-58.5 3.45 -39.0
-55.5 3.84 -39.0
-52.5 4.4 -39.0
-49.5 4.1 -39.0
-46.5 4.07 -39.0
-43.5 3.28 -39.0
-40.5 3.77 -39.0
-37.5 4.33 -39.0
-34.5 3.74 -39.0
-31.5 2.4 -39.0
241.5 7.38 -39.0
244.5 7.97 -39.0
247.5 8.83 -39.0
250.5 8.73 -39.0
253.5 9.25 -39.0
256.5 7.45 -39.0
259.5 8.69 -39.0
262.5 8.2 -39.0
265.5 6.59 -39.0
268.5 7.55 -39.0
271.5 7.84 -39.0
280.5 9.61 -39.0
283.5 14.83 -39.0
286.5 16.8 -39.0
289.5 13.75 -39.0
292.5 15.06 -39.0
295.5 14.37 -39.0
298.5 14.6 -39.0
301.5 13.94 -39.0
304.5 14.37 -39.0
307.5 14.44 -39.0
310.5 13.32 -39.0
313.5 11.98 -39.0
337.5 9.29 -39.0
349.5 9.68 -39.0
355.5 9.58 -39.0
361.5 18.9 -39.0
364.5 23.43 -39.0
367.5 28.12 -39.0
370.5 34.74 -39.0
373.5 33.86 -39.0
376.5 29.17 -39.0
379.5 27.36 -39.0
382.5 17.59 -39.0
385.5 10.04 -39.0
-397.5 5.71 -36.0
-139.5 3.22 -36.0
-136.5 4.2 -36.0
-133.5 4.46 -36.0
-130.5 4.82 -36.0
-127.5 5.68 -36.0
-103.5 3.87 -36.0
-100.5 3.51 -36.0
-97.5 3.28 -36.0
-94.5 5.05 -36.0
-91.5 6.0 -36.0
-88.5 3.22 -36.0
-85.5 3.64 -36.0
-82.5 3.22 -36.0
-70.5 4.43 -36.0
-64.5 2.99 -36.0
-61.5 4.56 -36.0
-58.5 4.5 -36.0
-55.5 3.31 -36.0
-52.5 3.67 -36.0
-49.5 3.31 -36.0
-46.5 3.58 -36.0
-43.5 3.74 -36.0
-40.5 3.48 -36.0
-37.5 4.23 -36.0
-34.5 3.74 -36.0
-31.5 4.17 -36.0
-28.5 3.41 -36.0
-22.5 2.13 -36.0
-19.5 2.03 -36.0
247.5 5.84 -36.0
250.5 6.96 -36.0
253.5 8.79 -36.0
256.5 7.94 -36.0
259.5 5.94 -36.0
262.5 6.5 -36.0
265.5 6.5 -36.0
277.5 20.18 -36.0
280.5 22.93 -36.0
283.5 17.91 -36.0
286.5 14.83 -36.0
289.5 13.19 -36.0
292.5 14.63 -36.0
295.5 14.53 -36.0
298.5 14.44 -36.0
301.5 13.55 -36.0
304.5 13.91 -36.0
307.5 12.37 -36.0
310.5 13.09 -36.0
313.5 12.07 -36.0
316.5 11.19 -36.0
361.5 18.54 -36.0
364.5 25.36 -36.0
367.5 37.04 -36.0
370.5 39.7 -36.0
373.5 40.09 -36.0
376.5 34.58 -36.0
379.5 34.42 -36.0
382.5 24.67 -36.0
388.5 9.22 -36.0
-133.5 2.92 -33.0
-130.5 4.53 -33.0
-127.5 4.82 -33.0
-85.5 3.05 -33.0
-79.5 3.12 -33.0
-76.5 3.12 -33.0
-73.5 3.61 -33.0
-70.5 5.97 -33.0
-67.5 3.81 -33.0
-61.5 5.22 -33.0
-58.5 5.48 -33.0
-55.5 5.15 -33.0
-52.5 4.33 -33.0
-46.5 2.72 -33.0
-43.5 2.62 -33.0
-37.5 2.99 -33.0
-34.5 3.15 -33.0
-31.5 4.36 -33.0
-28.5 2.85 -33.0
-25.5 3.02 -33.0
-22.5 5.54 -33.0
-19.5 5.35 -33.0
-16.5 3.38 -33.0
265.5 5.64 -33.0
277.5 28.45 -33.0
280.5 29.23 -33.0
283.5 18.57 -33.0
286.5 19.52 -33.0
289.5 11.35 -33.0
292.5 13.22 -33.0
295.5 12.76 -33.0
298.5 13.65 -33.0
301.5 13.88 -33.0
304.5 14.5 -33.0
307.5 12.96 -33.0
310.5 13.29 -33.0
313.5 12.4 -33.0
316.5 8.86 -33.0
337.5 8.56 -33.0
349.5 9.29 -33.0
352.5 9.15 -33.0
355.5 9.09 -33.0
361.5 18.44 -33.0
364.5 29.04 -33.0
367.5 34.97 -33.0
370.5 39.96 -33.0
373.5 41.73 -33.0
376.5 39.4 -33.0
379.5 38.62 -33.0
382.5 28.94 -33.0
385.5 15.03 -33.0
-97.5 2.92 -30.0
-94.5 3.15 -30.0
-91.5 3.02 -30.0
-73.5 3.28 -30.0
-70.5 3.45 -30.0
-67.5 3.05 -30.0
-64.5 6.1 -30.0
-61.5 4.89 -30.0
-58.5 5.28 -30.0
-55.5 4.95 -30.0
-52.5 5.22 -30.0
-49.5 4.36 -30.0
-46.5 4.56 -30.0
-43.5 4.95 -30.0
-34.5 6.73 -30.0
-31.5 2.53 -30.0
-28.5 6.33 -30.0
-25.5 8.04 -30.0
-22.5 8.4 -30.0
-19.5 8.6 -30.0
-16.5 4.17 -30.0
277.5 20.41 -30.0
280.5 26.05 -30.0
283.5 25.69 -30.0
286.5 15.29 -30.0
289.5 10.47 -30.0
292.5 10.73 -30.0
295.5 12.63 -30.0
298.5 11.88 -30.0
301.5 11.78 -30.0
304.5 12.01 -30.0
307.5 12.21 -30.0
310.5 11.55 -30.0
313.5 10.93 -30.0
316.5 8.01 -30.0
349.5 8.86 -30.0
352.5 9.25 -30.0
355.5 16.9 -30.0
358.5 19.65 -30.0
361.5 20.47 -30.0
364.5 30.32 -30.0
367.5 36.61 -30.0
370.5 39.96 -30.0
373.5 41.14 -30.0
376.5 40.95 -30.0
379.5 35.14 -30.0
382.5 33.17 -30.0
385.5 14.63 -30.0
397.5 8.99 -30.0
-94.5 3.74 -27.0
-91.5 3.81 -27.0
-88.5 2.99 -27.0
-64.5 6.2 -27.0
-61.5 5.41 -27.0
-58.5 4.79 -27.0
-55.5 5.41 -27.0
-52.5 5.64 -27.0
-49.5 6.89 -27.0
-46.5 6.2 -27.0
-43.5 6.33 -27.0
-40.5 4.69 -27.0
-37.5 4.4 -27.0
-34.5 10.89 -27.0
-31.5 12.34 -27.0
-28.5 12.76 -27.0
-25.5 11.25 -27.0
-22.5 9.22 -27.0
-19.5 10.33 -27.0
-16.5 4.53 -27.0
7.5 2.72 -27.0
280.5 22.18 -27.0
283.5 19.03 -27.0
286.5 14.21 -27.0
289.5 10.33 -27.0
292.5 10.47 -27.0
295.5 11.35 -27.0
298.5 10.2 -27.0
301.5 10.89 -27.0
304.5 10.83 -27.0
307.5 11.06 -27.0
310.5 10.56 -27.0
313.5 8.92 -27.0
316.5 6.96 -27.0
337.5 13.42 -27.0
340.5 15.81 -27.0
343.5 15.78 -27.0
346.5 11.65 -27.0
352.5 15.26 -27.0
355.5 22.9 -27.0
358.5 25.23 -27.0
361.5 25.1 -27.0
364.5 29.0 -27.0
367.5 37.89 -27.0
370.5 41.08 -27.0
373.5 41.9 -27.0
376.5 41.17 -27.0
379.5 38.22 -27.0
382.5 27.99 -27.0
385.5 16.14 -27.0
-58.5 2.99 -24.0
-55.5 3.45 -24.0
-52.5 5.91 -24.0
-49.5 6.4 -24.0
-46.5 6.99 -24.0
-43.5 6.5 -24.0
-40.5 11.55 -24.0
-37.5 11.02 -24.0
-34.5 13.94 -24.0
-31.5 13.06 -24.0
-28.5 14.6 -24.0
-25.5 15.39 -24.0
-22.5 10.83 -24.0
-19.5 13.81 -24.0
-16.5 13.16 -24.0
-13.5 7.15 -24.0
4.5 6.33 -24.0
7.5 6.0 -24.0
10.5 2.56 -24.0
16.5 2.99 -24.0
19.5 2.89 -24.0
289.5 7.22 -24.0
292.5 8.27 -24.0
295.5 9.55 -24.0
298.5 9.58 -24.0
301.5 9.58 -24.0
304.5 9.65 -24.0
307.5 9.94 -24.0
310.5 8.83 -24.0
334.5 12.43 -24.0
337.5 20.8 -24.0
340.5 21.36 -24.0
343.5 21.0 -24.0
346.5 22.24 -24.0
349.5 20.64 -24.0
352.5 21.42 -24.0
355.5 24.28 -24.0
358.5 27.33 -24.0
361.5 28.48 -24.0
364.5 28.54 -24.0
367.5 37.01 -24.0
370.5 38.52 -24.0
373.5 41.37 -24.0
376.5 34.19 -24.0
379.5 30.51 -24.0
382.5 24.8 -24.0
-76.5 2.76 -21.0
-55.5 2.85 -21.0
-52.5 5.32 -21.0
-49.5 6.53 -21.0
-46.5 6.33 -21.0
-43.5 6.5 -21.0
-40.5 6.69 -21.0
-37.5 5.64 -21.0
-34.5 13.55 -21.0
-31.5 14.11 -21.0
-28.5 13.55 -21.0
-25.5 13.25 -21.0
-22.5 13.42 -21.0
-19.5 12.24 -21.0
-16.5 12.21 -21.0
-13.5 6.4 -21.0
-1.5 3.38 -21.0
1.5 5.09 -21.0
4.5 5.54 -21.0
7.5 5.94 -21.0
10.5 3.71 -21.0
13.5 7.28 -21.0
16.5 9.68 -21.0
19.5 11.29 -21.0
22.5 9.02 -21.0
28.5 3.12 -21.0
184.5 3.81 -21.0
190.5 2.59 -21.0
295.5 8.73 -21.0
298.5 8.5 -21.0
301.5 8.1 -21.0
307.5 5.87 -21.0
334.5 18.04 -21.0
337.5 22.15 -21.0
340.5 22.64 -21.0
343.5 23.92 -21.0
346.5 24.38 -21.0
349.5 21.98 -21.0
352.5 25.0 -21.0
355.5 24.71 -21.0
358.5 30.97 -21.0
361.5 30.18 -21.0
364.5 29.82 -21.0
367.5 26.48 -21.0
370.5 36.38 -21.0
373.5 32.32 -21.0
376.5 32.71 -21.0
379.5 30.32 -21.0
382.5 13.68 -21.0
394.5 7.97 -21.0
-58.5 2.82 -18.0
-55.5 3.35 -18.0
-52.5 3.67 -18.0
-49.5 4.92 -18.0
-46.5 5.74 -18.0
-43.5 5.28 -18.0
-40.5 6.2 -18.0
-37.5 10.01 -18.0
-34.5 12.5 -18.0
-31.5 12.73 -18.0
-28.5 13.55 -18.0
-25.5 12.34 -18.0
-22.5 13.39 -18.0
-19.5 11.65 -18.0
-16.5 13.32 -18.0
-1.5 3.28 -18.0
1.5 5.45 -18.0
4.5 4.92 -18.0
7.5 6.1 -18.0
10.5 4.17 -18.0
13.5 14.11 -18.0
16.5 13.19 -18.0
19.5 13.45 -18.0
22.5 12.24 -18.0
25.5 7.19 -18.0
28.5 3.67 -18.0
31.5 3.48 -18.0
34.5 2.95 -18.0
37.5 2.59 -18.0
184.5 3.94 -18.0
187.5 4.99 -18.0
190.5 2.82 -18.0
193.5 2.92 -18.0
247.5 4.04 -18.0
298.5 5.54 -18.0
307.5 17.09 -18.0
310.5 16.21 -18.0
331.5 21.46 -18.0
334.5 22.38 -18.0
337.5 23.72 -18.0
340.5 30.09 -18.0
343.5 28.18 -18.0
346.5 28.12 -18.0
349.5 21.06 -18.0
352.5 20.44 -18.0
355.5 25.72 -18.0
358.5 27.82 -18.0
361.5 30.25 -18.0
364.5 28.02 -18.0
367.5 25.98 -18.0
370.5 25.66 -18.0
373.5 27.72 -18.0
376.5 26.51 -18.0
379.5 26.8 -18.0
-58.5 3.05 -15.0
-52.5 2.95 -15.0
-49.5 2.89 -15.0
-46.5 3.28 -15.0
-43.5 4.07 -15.0
-40.5 4.13 -15.0
-37.5 4.86 -15.0
-34.5 10.83 -15.0
-31.5 12.5 -15.0
-28.5 12.53 -15.0
-25.5 12.01 -15.0
-22.5 12.7 -15.0
-19.5 9.74 -15.0
-16.5 3.64 -15.0
-4.5 3.12 -15.0
-1.5 3.9 -15.0
1.5 4.13 -15.0
7.5 3.02 -15.0
10.5 12.6 -15.0
13.5 13.12 -15.0
16.5 14.01 -15.0
19.5 14.99 -15.0
22.5 13.29 -15.0
25.5 13.25 -15.0
28.5 9.61 -15.0
31.5 4.53 -15.0
34.5 2.56 -15.0
37.5 3.12 -15.0
190.5 3.18 -15.0
193.5 3.18 -15.0
241.5 5.87 -15.0
244.5 5.51 -15.0
247.5 5.91 -15.0
250.5 4.92 -15.0
301.5 15.29 -15.0
304.5 18.87 -15.0
307.5 18.67 -15.0
310.5 18.87 -15.0
313.5 9.94 -15.0
331.5 20.14 -15.0
334.5 21.46 -15.0
337.5 24.41 -15.0
340.5 29.0 -15.0
343.5 31.14 -15.0
346.5 30.02 -15.0
349.5 24.44 -15.0
352.5 19.65 -15.0
355.5 25.49 -15.0
358.5 26.77 -15.0
361.5 26.84 -15.0
364.5 26.21 -15.0
367.5 23.92 -15.0
370.5 24.15 -15.0
373.5 25.85 -15.0
376.5 26.08 -15.0
-43.5 2.85 -12.0
-40.5 3.25 -12.0
-37.5 3.28 -12.0
-34.5 4.43 -12.0
-31.5 6.14 -12.0
-28.5 10.14 -12.0
-25.5 10.01 -12.0
-22.5 7.35 -12.0
-19.5 6.0 -12.0
-1.5 4.56 -12.0
1.5 5.68 -12.0
4.5 6.43 -12.0
7.5 6.14 -12.0
10.5 17.49 -12.0
13.5 18.41 -12.0
16.5 22.41 -12.0
19.5 15.55 -12.0
22.5 15.45 -12.0
25.5 13.85 -12.0
28.5 10.6 -12.0
64.5 2.33 -12.0
67.5 1.9 -12.0
184.5 2.53 -12.0
187.5 2.92 -12.0
190.5 2.59 -12.0
193.5 3.02 -12.0
238.5 3.38 -12.0
241.5 8.66 -12.0
244.5 7.58 -12.0
247.5 7.45 -12.0
250.5 9.12 -12.0
253.5 6.27 -12.0
301.5 16.54 -12.0
304.5 19.29 -12.0
307.5 19.72 -12.0
310.5 18.24 -12.0
313.5 18.77 -12.0
316.5 12.57 -12.0
331.5 12.34 -12.0
334.5 20.83 -12.0
337.5 23.26 -12.0
340.5 27.36 -12.0
343.5 28.38 -12.0
346.5 28.35 -12.0
349.5 22.21 -12.0
352.5 18.08 -12.0
355.5 24.48 -12.0
358.5 24.48 -12.0
361.5 25.89 -12.0
364.5 24.61 -12.0
367.5 22.9 -12.0
370.5 15.75 -12.0
373.5 12.37 -12.0
-34.5 3.22 -9.0
-31.5 4.92 -9.0
-28.5 4.89 -9.0
-25.5 2.79 -9.0
-22.5 2.53 -9.0
-1.5 3.51 -9.0
1.5 5.71 -9.0
4.5 7.22 -9.0
7.5 4.66 -9.0
10.5 20.57 -9.0
13.5 22.47 -9.0
16.5 23.43 -9.0
19.5 18.7 -9.0
22.5 16.11 -9.0
25.5 14.27 -9.0
28.5 11.35 -9.0
34.5 2.3 -9.0
40.5 2.17 -9.0
64.5 1.61 -9.0
67.5 1.48 -9.0
73.5 1.8 -9.0
79.5 1.9 -9.0
241.5 5.48 -9.0
244.5 9.09 -9.0
247.5 9.55 -9.0
250.5 6.89 -9.0
253.5 4.76 -9.0
301.5 12.37 -9.0
304.5 16.04 -9.0
307.5 18.96 -9.0
310.5 17.22 -9.0
313.5 18.7 -9.0
316.5 11.48 -9.0
331.5 11.98 -9.0
334.5 18.64 -9.0
337.5 22.41 -9.0
340.5 21.26 -9.0
343.5 21.85 -9.0
346.5 20.93 -9.0
349.5 17.32 -9.0
352.5 15.26 -9.0
355.5 18.9 -9.0
358.5 19.16 -9.0
361.5 22.64 -9.0
364.5 19.09 -9.0
367.5 15.75 -9.0
370.5 13.75 -9.0
373.5 13.91 -9.0
379.5 6.5 -9.0
382.5 7.94 -9.0
385.5 7.61 -9.0
388.5 7.91 -9.0
391.5 7.97 -9.0
394.5 7.84 -9.0
397.5 8.1 -9.0
-1.5 2.56 -6.0
1.5 3.05 -6.0
4.5 2.89 -6.0
7.5 4.53 -6.0
10.5 6.27 -6.0
13.5 21.56 -6.0
16.5 23.06 -6.0
19.5 18.8 -6.0
22.5 20.57 -6.0
25.5 14.7 -6.0
28.5 8.27 -6.0
31.5 5.68 -6.0
34.5 2.26 -6.0
37.5 3.02 -6.0
238.5 4.79 -6.0
241.5 6.89 -6.0
244.5 8.46 -6.0
247.5 9.71 -6.0
250.5 8.86 -6.0
253.5 6.59 -6.0
307.5 15.85 -6.0
310.5 13.75 -6.0
313.5 13.71 -6.0
334.5 16.73 -6.0
337.5 18.96 -6.0
340.5 18.27 -6.0
343.5 20.18 -6.0
346.5 17.82 -6.0
349.5 13.98 -6.0
352.5 14.4 -6.0
355.5 6.56 -6.0
358.5 13.45 -6.0
361.5 12.8 -6.0
364.5 14.44 -6.0
376.5 8.53 -6.0
379.5 8.79 -6.0
382.5 8.6 -6.0
385.5 8.6 -6.0
388.5 8.43 -6.0
391.5 8.99 -6.0
394.5 9.71 -6.0
397.5 9.88 -6.0
1.5 2.59 -3.0
4.5 2.95 -3.0
7.5 3.31 -3.0
10.5 4.0 -3.0
13.5 20.67 -3.0
16.5 23.85 -3.0
19.5 15.19 -3.0
22.5 18.87 -3.0
25.5 13.06 -3.0
28.5 10.93 -3.0
31.5 6.1 -3.0
34.5 3.22 -3.0
37.5 3.61 -3.0
40.5 3.51 -3.0
43.5 2.4 -3.0
46.5 1.9 -3.0
49.5 1.84 -3.0
238.5 7.35 -3.0
241.5 8.14 -3.0
244.5 9.74 -3.0
247.5 9.15 -3.0
250.5 7.22 -3.0
253.5 4.4 -3.0
346.5 12.93 -3.0
355.5 5.51 -3.0
373.5 8.46 -3.0
376.5 8.89 -3.0
379.5 8.63 -3.0
382.5 8.63 -3.0
385.5 8.66 -3.0
388.5 9.22 -3.0
391.5 8.27 -3.0
394.5 8.89 -3.0
397.5 9.55 -3.0
4.5 1.9 -0.0
10.5 2.82 -0.0
13.5 16.14 -0.0
16.5 18.64 -0.0
19.5 12.86 -0.0
22.5 14.67 -0.0
25.5 12.21 -0.0
28.5 8.79 -0.0
31.5 7.87 -0.0
34.5 2.99 -0.0
37.5 2.62 -0.0
40.5 3.31 -0.0
43.5 1.84 -0.0
52.5 1.87 -0.0
55.5 1.44 -0.0
58.5 1.28 -0.0
61.5 1.35 -0.0
82.5 0.92 -0.0
100.5 1.35 -0.0
103.5 0.92 -0.0
106.5 0.85 -0.0
109.5 1.31 -0.0
112.5 1.12 -0.0
115.5 1.41 -0.0
139.5 0.72 -0.0
238.5 6.27 -0.0
241.5 7.68 -0.0
244.5 8.79 -0.0
247.5 7.84 -0.0
250.5 7.38 -0.0
253.5 4.2 -0.0
364.5 5.74 -0.0
370.5 6.1 -0.0
373.5 8.92 -0.0
376.5 8.73 -0.0
379.5 8.43 -0.0
382.5 8.14 -0.0
385.5 8.24 -0.0
388.5 8.14 -0.0
391.5 8.2 -0.0
394.5 8.07 -0.0
397.5 8.46 -0.0
7.5 1.51 3.0
13.5 2.76 3.0
16.5 3.02 3.0
19.5 9.38 3.0
22.5 10.24 3.0
25.5 6.1 3.0
28.5 2.66 3.0
31.5 2.53 3.0
52.5 1.58 3.0
55.5 1.38 3.0
58.5 1.54 3.0
61.5 1.31 3.0
64.5 1.02 3.0
67.5 0.92 3.0
70.5 0.95 3.0
106.5 1.08 3.0
109.5 1.67 3.0
112.5 1.18 3.0
118.5 0.79 3.0
235.5 3.77 3.0
238.5 6.5 3.0
241.5 7.71 3.0
244.5 6.56 3.0
247.5 6.07 3.0
250.5 4.1 3.0
253.5 3.71 3.0
328.5 4.72 3.0
331.5 5.45 3.0
334.5 5.12 3.0
355.5 6.27 3.0
358.5 5.97 3.0
361.5 6.17 3.0
364.5 5.87 3.0
367.5 5.81 3.0
370.5 19.39 3.0
373.5 18.7 3.0
376.5 13.39 3.0
379.5 7.64 3.0
382.5 7.68 3.0
385.5 7.71 3.0
388.5 7.58 3.0
391.5 8.46 3.0
394.5 7.19 3.0
397.5 6.63 3.0
61.5 1.18 6.0
64.5 1.12 6.0
67.5 0.98 6.0
70.5 0.95 6.0
73.5 1.08 6.0
82.5 0.72 6.0
85.5 0.62 6.0
88.5 0.98 6.0
91.5 0.59 6.0
94.5 0.62 6.0
106.5 1.41 6.0
109.5 1.44 6.0
112.5 2.17 6.0
115.5 1.61 6.0
118.5 2.1 6.0
235.5 3.51 6.0
238.5 5.84 6.0
241.5 6.89 6.0
244.5 6.04 6.0
247.5 7.38 6.0
250.5 4.43 6.0
253.5 3.38 6.0
289.5 4.43 6.0
292.5 4.0 6.0
325.5 4.95 6.0
328.5 6.37 6.0
331.5 6.86 6.0
334.5 6.53 6.0
337.5 6.1 6.0
355.5 6.1 6.0
358.5 6.0 6.0
361.5 6.2 6.0
367.5 5.91 6.0
370.5 6.63 6.0
373.5 20.28 6.0
376.5 18.57 6.0
379.5 6.37 6.0
382.5 7.78 6.0
385.5 6.99 6.0
388.5 6.46 6.0
391.5 9.09 6.0
394.5 6.73 6.0
397.5 6.66 6.0
67.5 1.15 9.0
91.5 0.66 9.0
94.5 0.69 9.0
103.5 0.72 9.0
106.5 0.75 9.0
109.5 0.98 9.0
112.5 0.62 9.0
115.5 0.98 9.0
118.5 0.72 9.0
163.5 0.43 9.0
232.5 2.36 9.0
235.5 3.28 9.0
238.5 6.92 9.0
241.5 6.1 9.0
244.5 6.63 9.0
247.5 6.63 9.0
250.5 4.86 9.0
253.5 3.81 9.0
259.5 3.18 9.0
283.5 6.53 9.0
286.5 6.53 9.0
289.5 5.97 9.0
292.5 5.81 9.0
295.5 6.53 9.0
298.5 5.81 9.0
325.5 16.63 9.0
328.5 6.92 9.0
331.5 7.05 9.0
334.5 6.73 9.0
337.5 6.59 9.0
340.5 5.25 9.0
352.5 5.28 9.0
355.5 5.38 9.0
358.5 6.1 9.0
361.5 5.68 9.0
367.5 5.71 9.0
370.5 6.5 9.0
373.5 5.87 9.0
379.5 6.53 9.0
382.5 7.84 9.0
385.5 8.07 9.0
388.5 6.46 9.0
391.5 6.89 9.0
394.5 6.82 9.0
397.5 6.69 9.0
94.5 0.82 12.0
97.5 0.82 12.0
100.5 0.82 12.0
103.5 0.75 12.0
106.5 0.75 12.0
112.5 0.66 12.0
115.5 0.66 12.0
118.5 0.43 12.0
121.5 0.36 12.0
124.5 0.39 12.0
127.5 0.36 12.0
130.5 0.23 12.0
133.5 0.26 12.0
142.5 0.46 12.0
145.5 0.39 12.0
232.5 2.89 12.0
235.5 5.71 12.0
238.5 6.33 12.0
241.5 7.12 12.0
244.5 6.86 12.0
247.5 5.91 12.0
250.5 4.72 12.0
253.5 4.95 12.0
256.5 3.74 12.0
259.5 3.61 12.0
280.5 5.02 12.0
283.5 5.58 12.0
286.5 7.05 12.0
289.5 6.89 12.0
292.5 6.73 12.0
295.5 6.37 12.0
298.5 6.73 12.0
301.5 4.36 12.0
304.5 3.41 12.0
322.5 5.61 12.0
325.5 21.16 12.0
328.5 18.44 12.0
331.5 15.45 12.0
334.5 6.04 12.0
337.5 5.38 12.0
340.5 5.15 12.0
352.5 4.92 12.0
358.5 5.28 12.0
361.5 5.58 12.0
364.5 6.89 12.0
367.5 6.66 12.0
370.5 6.96 12.0
373.5 6.46 12.0
376.5 6.92 12.0
379.5 7.12 12.0
382.5 7.12 12.0
385.5 7.22 12.0
388.5 7.12 12.0
391.5 6.82 12.0
-25.5 1.94 15.0
-22.5 1.94 15.0
94.5 0.98 15.0
97.5 1.02 15.0
100.5 0.98 15.0
103.5 0.95 15.0
106.5 0.92 15.0
109.5 0.79 15.0
112.5 0.82 15.0
118.5 0.62 15.0
121.5 0.59 15.0
124.5 0.66 15.0
127.5 0.59 15.0
130.5 0.69 15.0
133.5 0.56 15.0
136.5 0.46 15.0
139.5 0.53 15.0
142.5 0.56 15.0
145.5 0.53 15.0
148.5 0.66 15.0
151.5 0.56 15.0
154.5 0.72 15.0
157.5 0.39 15.0
160.5 0.16 15.0
229.5 2.1 15.0
232.5 3.05 15.0
235.5 4.43 15.0
238.5 5.68 15.0
241.5 6.56 15.0
244.5 6.43 15.0
247.5 6.17 15.0
250.5 6.14 15.0
253.5 3.22 15.0
256.5 4.33 15.0
259.5 4.36 15.0
277.5 3.02 15.0
280.5 4.4 15.0
283.5 5.54 15.0
286.5 6.69 15.0
289.5 7.12 15.0
292.5 6.96 15.0
295.5 6.59 15.0
298.5 6.07 15.0
301.5 5.74 15.0
304.5 4.1 15.0
319.5 3.94 15.0
322.5 22.01 15.0
325.5 23.59 15.0
328.5 23.56 15.0
331.5 20.41 15.0
334.5 5.97 15.0
337.5 5.02 15.0
340.5 5.68 15.0
343.5 5.48 15.0
355.5 6.1 15.0
358.5 7.19 15.0
361.5 7.48 15.0
364.5 7.38 15.0
367.5 7.38 15.0
370.5 7.02 15.0
373.5 5.74 15.0
376.5 5.68 15.0
379.5 5.68 15.0
382.5 5.91 15.0
394.5 6.3 15.0
397.5 32.61 15.0
-28.5 1.94 18.0
-25.5 1.84 18.0
-22.5 1.9 18.0
97.5 1.12 18.0
100.5 1.05 18.0
103.5 1.05 18.0
106.5 1.02 18.0
109.5 0.95 18.0
112.5 0.92 18.0
115.5 0.75 18.0
118.5 0.72 18.0
121.5 0.66 18.0
124.5 0.72 18.0
127.5 0.79 18.0
130.5 0.72 18.0
133.5 0.79 18.0
136.5 0.66 18.0
139.5 0.66 18.0
142.5 0.62 18.0
145.5 0.62 18.0
148.5 0.66 18.0
151.5 0.69 18.0
154.5 0.62 18.0
157.5 0.39 18.0
160.5 0.39 18.0
163.5 0.33 18.0
166.5 0.36 18.0
169.5 0.56 18.0
229.5 2.13 18.0
232.5 3.15 18.0
235.5 5.02 18.0
238.5 5.32 18.0
241.5 6.82 18.0
244.5 6.07 18.0
247.5 6.4 18.0
250.5 4.79 18.0
253.5 3.87 18.0
256.5 3.25 18.0
259.5 3.22 18.0
262.5 3.12 18.0
280.5 4.69 18.0
283.5 4.66 18.0
286.5 4.92 18.0
289.5 4.33 18.0
292.5 4.3 18.0
295.5 4.95 18.0
298.5 5.09 18.0
301.5 5.35 18.0
304.5 4.72 18.0
307.5 3.08 18.0
319.5 13.45 18.0
322.5 18.18 18.0
325.5 26.71 18.0
328.5 25.3 18.0
331.5 22.77 18.0
334.5 15.91 18.0
337.5 5.38 18.0
340.5 4.59 18.0
343.5 5.18 18.0
355.5 6.23 18.0
358.5 6.2 18.0
361.5 6.89 18.0
364.5 7.42 18.0
367.5 7.45 18.0
370.5 5.68 18.0
379.5 6.92 18.0
382.5 7.71 18.0
385.5 6.46 18.0
388.5 6.1 18.0
397.5 59.25 18.0
-28.5 1.84 21.0
-25.5 1.77 21.0
-22.5 1.71 21.0
94.5 1.18 21.0
97.5 1.21 21.0
100.5 1.12 21.0
112.5 0.92 21.0
115.5 0.95 21.0
121.5 0.79 21.0
124.5 0.75 21.0
127.5 0.82 21.0
130.5 0.79 21.0
133.5 0.82 21.0
136.5 0.75 21.0
139.5 0.66 21.0
142.5 0.62 21.0
145.5 0.62 21.0
148.5 0.69 21.0
151.5 0.62 21.0
154.5 0.66 21.0
157.5 0.66 21.0
160.5 0.49 21.0
163.5 0.49 21.0
166.5 0.43 21.0
169.5 0.43 21.0
172.5 0.36 21.0
178.5 0.23 21.0
226.5 0.72 21.0
229.5 1.48 21.0
232.5 4.69 21.0
235.5 7.84 21.0
238.5 6.69 21.0
241.5 5.05 21.0
244.5 5.48 21.0
247.5 4.76 21.0
250.5 3.71 21.0
253.5 3.02 21.0
256.5 2.56 21.0
262.5 2.99 21.0
280.5 3.87 21.0
283.5 4.36 21.0
286.5 4.63 21.0
289.5 4.46 21.0
292.5 5.35 21.0
295.5 5.05 21.0
298.5 4.56 21.0
301.5 4.82 21.0
304.5 3.84 21.0
307.5 3.45 21.0
322.5 20.57 21.0
325.5 22.87 21.0
328.5 27.82 21.0
331.5 22.21 21.0
334.5 16.6 21.0
337.5 4.63 21.0
340.5 5.15 21.0
343.5 5.02 21.0
355.5 5.61 21.0
358.5 5.64 21.0
361.5 6.14 21.0
364.5 6.4 21.0
367.5 5.51 21.0
379.5 7.74 21.0
382.5 8.17 21.0
385.5 6.99 21.0
388.5 5.94 21.0
391.5 35.14 21.0
394.5 57.15 21.0
397.5 58.07 21.0
-28.5 1.74 24.0
-25.5 1.71 24.0
-22.5 1.71 24.0
121.5 0.92 24.0
124.5 0.85 24.0
127.5 0.85 24.0
130.5 0.82 24.0
133.5 0.79 24.0
136.5 0.79 24.0
139.5 0.59 24.0
142.5 0.59 24.0
145.5 0.56 24.0
151.5 0.53 24.0
154.5 0.59 24.0
157.5 0.53 24.0
160.5 0.43 24.0
163.5 0.59 24.0
166.5 0.56 24.0
169.5 0.62 24.0
172.5 0.62 24.0
175.5 0.49 24.0
178.5 0.43 24.0
211.5 0.33 24.0
229.5 1.35 24.0
232.5 4.69 24.0
235.5 6.92 24.0
238.5 7.38 24.0
241.5 6.3 24.0
244.5 6.0 24.0
247.5 4.4 24.0
250.5 2.4 24.0
253.5 2.82 24.0
256.5 2.3 24.0
259.5 2.62 24.0
262.5 4.1 24.0
265.5 2.69 24.0
283.5 4.07 24.0
286.5 4.07 24.0
289.5 5.02 24.0
292.5 4.76 24.0
295.5 4.56 24.0
298.5 3.84 24.0
301.5 4.23 24.0
304.5 4.04 24.0
307.5 3.67 24.0
325.5 16.11 24.0
328.5 18.96 24.0
331.5 16.5 24.0
334.5 11.09 24.0
337.5 5.68 24.0
340.5 5.54 24.0
343.5 5.81 24.0
355.5 5.64 24.0
358.5 5.64 24.0
361.5 5.32 24.0
364.5 5.35 24.0
376.5 6.14 24.0
379.5 7.12 24.0
382.5 6.99 24.0
385.5 6.86 24.0
388.5 53.08 24.0
391.5 48.26 24.0
394.5 55.97 24.0
397.5 58.6 24.0
-25.5 1.61 27.0
118.5 1.05 27.0
124.5 0.89 27.0
127.5 1.02 27.0
130.5 0.85 27.0
133.5 0.85 27.0
136.5 0.75 27.0
139.5 0.72 27.0
142.5 0.66 27.0
160.5 0.62 27.0
163.5 0.62 27.0
166.5 0.69 27.0
169.5 0.79 27.0
172.5 0.79 27.0
175.5 0.72 27.0
178.5 0.69 27.0
187.5 0.66 27.0
190.5 0.66 27.0
193.5 0.53 27.0
229.5 1.05 27.0
232.5 3.94 27.0
235.5 7.45 27.0
238.5 6.99 27.0
241.5 6.46 27.0
244.5 5.74 27.0
247.5 3.81 27.0
250.5 3.15 27.0
253.5 2.85 27.0
256.5 2.26 27.0
259.5 2.23 27.0
262.5 4.0 27.0
265.5 4.56 27.0
268.5 2.03 27.0
286.5 5.28 27.0
289.5 5.77 27.0
292.5 4.5 27.0
295.5 3.48 27.0
298.5 3.35 27.0
301.5 4.04 27.0
304.5 3.74 27.0
307.5 3.12 27.0
325.5 20.18 27.0
331.5 5.12 27.0
334.5 5.71 27.0
337.5 5.84 27.0
340.5 6.33 27.0
343.5 6.53 27.0
355.5 4.89 27.0
358.5 5.91 27.0
361.5 4.82 27.0
364.5 4.86 27.0
367.5 5.02 27.0
370.5 5.05 27.0
373.5 5.51 27.0
376.5 6.3 27.0
379.5 6.79 27.0
382.5 6.0 27.0
385.5 51.74 27.0
388.5 53.08 27.0
391.5 61.75 27.0
394.5 65.55 27.0
397.5 68.57 27.0
121.5 1.02 30.0
127.5 1.02 30.0
130.5 1.02 30.0
136.5 0.82 30.0
160.5 0.72 30.0
166.5 0.72 30.0
169.5 0.79 30.0
172.5 0.82 30.0
175.5 0.69 30.0
178.5 0.72 30.0
184.5 0.53 30.0
187.5 0.3 30.0
190.5 0.3 30.0
193.5 0.26 30.0
196.5 0.39 30.0
199.5 0.23 30.0
202.5 0.2 30.0
205.5 0.49 30.0
229.5 1.54 30.0
232.5 1.48 30.0
235.5 3.35 30.0
238.5 4.36 30.0
241.5 4.99 30.0
244.5 3.35 30.0
247.5 2.85 30.0
250.5 3.15 30.0
253.5 2.43 30.0
256.5 1.8 30.0
259.5 2.03 30.0
262.5 3.67 30.0
265.5 4.4 30.0
268.5 3.28 30.0
271.5 2.33 30.0
286.5 3.64 30.0
289.5 2.66 30.0
292.5 4.56 30.0
295.5 5.25 30.0
298.5 3.51 30.0
301.5 3.51 30.0
304.5 2.95 30.0
331.5 3.58 30.0
334.5 4.66 30.0
337.5 4.66 30.0
340.5 6.27 30.0
343.5 6.0 30.0
355.5 5.41 30.0
358.5 5.77 30.0
361.5 5.28 30.0
364.5 6.3 30.0
367.5 5.12 30.0
370.5 5.15 30.0
373.5 5.71 30.0
376.5 6.53 30.0
379.5 6.37 30.0
382.5 6.33 30.0
385.5 41.14 30.0
388.5 67.39 30.0
391.5 66.31 30.0
394.5 66.77 30.0
397.5 71.19 30.0
130.5 0.92 33.0
163.5 0.79 33.0
166.5 0.85 33.0
169.5 0.82 33.0
172.5 0.92 33.0
175.5 0.85 33.0
181.5 0.66 33.0
184.5 0.62 33.0
190.5 0.53 33.0
193.5 0.36 33.0
196.5 0.26 33.0
199.5 0.33 33.0
202.5 0.43 33.0
205.5 0.59 33.0
208.5 0.07 33.0
229.5 1.21 33.0
232.5 1.31 33.0
235.5 1.97 33.0
238.5 4.3 33.0
241.5 4.63 33.0
244.5 2.56 33.0
247.5 2.33 33.0
250.5 2.89 33.0
253.5 2.23 33.0
256.5 1.48 33.0
259.5 2.2 33.0
262.5 3.25 33.0
265.5 4.33 33.0
268.5 4.76 33.0
271.5 3.84 33.0
274.5 3.48 33.0
289.5 2.76 33.0
292.5 3.22 33.0
295.5 3.54 33.0
298.5 4.82 33.0
301.5 2.79 33.0
340.5 3.45 33.0
343.5 4.4 33.0
346.5 4.23 33.0
358.5 5.28 33.0
361.5 5.81 33.0
364.5 6.63 33.0
367.5 6.27 33.0
370.5 5.28 33.0
373.5 6.43 33.0
376.5 6.79 33.0
379.5 7.12 33.0
382.5 6.53 33.0
385.5 7.15 33.0
388.5 65.62 33.0
391.5 70.18 33.0
394.5 70.7 33.0
397.5 74.11 33.0
-1.5 1.48 36.0
169.5 0.92 36.0
172.5 0.95 36.0
175.5 0.98 36.0
178.5 0.98 36.0
184.5 0.69 36.0
187.5 0.69 36.0
190.5 0.59 36.0
193.5 0.53 36.0
196.5 0.43 36.0
199.5 0.33 36.0
202.5 0.33 36.0
205.5 0.26 36.0
208.5 0.03 36.0
232.5 0.23 36.0
238.5 3.97 36.0
241.5 4.43 36.0
244.5 1.18 36.0
247.5 1.9 36.0
250.5 2.76 36.0
253.5 1.54 36.0
259.5 1.64 36.0
262.5 2.33 36.0
265.5 3.25 36.0
268.5 4.82 36.0
271.5 3.94 36.0
274.5 3.31 36.0
277.5 2.36 36.0
295.5 2.49 36.0
358.5 4.69 36.0
361.5 5.18 36.0
364.5 6.59 36.0
367.5 6.63 36.0
370.5 4.86 36.0
373.5 4.92 36.0
376.5 6.73 36.0
379.5 6.5 36.0
382.5 6.43 36.0
385.5 53.38 36.0
388.5 52.26 36.0
391.5 68.93 36.0
394.5 69.72 36.0
397.5 67.59 36.0
178.5 1.02 39.0
181.5 0.98 39.0
187.5 0.75 39.0
190.5 0.82 39.0
193.5 0.66 39.0
196.5 0.56 39.0
199.5 0.49 39.0
202.5 0.36 39.0
205.5 0.3 39.0
208.5 0.2 39.0
220.5 0.0 39.0
223.5 0.56 39.0
229.5 1.12 39.0
232.5 1.25 39.0
235.5 0.98 39.0
238.5 1.31 39.0
244.5 0.62 39.0
247.5 1.35 39.0
250.5 1.21 39.0
253.5 1.87 39.0
259.5 1.54 39.0
262.5 2.53 39.0
265.5 3.45 39.0
268.5 3.45 39.0
271.5 4.72 39.0
274.5 4.63 39.0
277.5 2.72 39.0
361.5 4.46 39.0
364.5 6.46 39.0
367.5 6.07 39.0
370.5 4.86 39.0
373.5 4.79 39.0
376.5 5.25 39.0
379.5 5.58 39.0
382.5 5.87 39.0
385.5 54.43 39.0
388.5 51.67 39.0
391.5 59.84 39.0
394.5 66.96 39.0
397.5 71.29 39.0
187.5 0.92 42.0
190.5 0.92 42.0
193.5 0.79 42.0
196.5 0.75 42.0
199.5 0.62 42.0
202.5 0.53 42.0
205.5 0.53 42.0
208.5 0.56 42.0
211.5 0.3 42.0
220.5 0.62 42.0
223.5 0.53 42.0
226.5 1.84 42.0
229.5 2.49 42.0
232.5 1.64 42.0
235.5 2.17 42.0
238.5 1.54 42.0
241.5 0.13 42.0
244.5 0.75 42.0
253.5 0.82 42.0
259.5 1.61 42.0
262.5 2.13 42.0
265.5 3.64 42.0
268.5 2.92 42.0
271.5 3.84 42.0
274.5 4.43 42.0
277.5 3.41 42.0
280.5 2.3 42.0
364.5 6.37 42.0
367.5 5.35 42.0
370.5 4.4 42.0
373.5 4.33 42.0
376.5 5.91 42.0
379.5 4.36 42.0
388.5 50.82 42.0
391.5 48.2 42.0
394.5 51.77 42.0
397.5 67.45 42.0
-34.5 1.77 45.0
-28.5 1.67 45.0
184.5 1.08 45.0
187.5 1.05 45.0
190.5 1.05 45.0
193.5 0.95 45.0
196.5 0.85 45.0
199.5 0.82 45.0
202.5 0.75 45.0
205.5 0.59 45.0
208.5 0.69 45.0
211.5 0.53 45.0
214.5 0.46 45.0
217.5 0.56 45.0
220.5 0.98 45.0
223.5 1.15 45.0
226.5 2.43 45.0
229.5 2.69 45.0
232.5 2.82 45.0
235.5 1.74 45.0
238.5 1.41 45.0
241.5 0.82 45.0
244.5 0.85 45.0
247.5 0.82 45.0
250.5 0.43 45.0
259.5 0.59 45.0
262.5 3.25 45.0
265.5 3.41 45.0
268.5 2.92 45.0
271.5 2.99 45.0
274.5 4.79 45.0
277.5 5.22 45.0
280.5 2.23 45.0
367.5 4.86 45.0
370.5 5.45 45.0
376.5 4.0 45.0
388.5 39.73 45.0
391.5 50.1 45.0
394.5 51.84 45.0
397.5 57.97 45.0
-31.5 1.87 48.0
187.5 1.12 48.0
190.5 1.15 48.0
193.5 1.12 48.0
196.5 1.05 48.0
199.5 1.02 48.0
202.5 0.95 48.0
205.5 0.79 48.0
208.5 0.75 48.0
211.5 0.85 48.0
214.5 0.79 48.0
217.5 0.98 48.0
220.5 1.21 48.0
223.5 1.41 48.0
226.5 2.23 48.0
229.5 2.62 48.0
232.5 2.85 48.0
235.5 2.76 48.0
238.5 2.36 48.0
241.5 1.21 48.0
244.5 1.58 48.0
247.5 1.38 48.0
250.5 0.82 48.0
265.5 1.58 48.0
268.5 3.08 48.0
271.5 3.77 48.0
274.5 4.86 48.0
277.5 5.22 48.0
280.5 2.2 48.0
331.5 3.25 48.0
373.5 3.9 48.0
382.5 5.15 48.0
385.5 4.92 48.0
391.5 14.63 48.0
394.5 36.45 48.0
397.5 35.66 48.0
-34.5 1.97 51.0
-28.5 1.8 51.0
184.5 1.28 51.0
187.5 1.25 51.0
193.5 1.15 51.0
196.5 1.15 51.0
199.5 1.15 51.0
202.5 1.12 51.0
205.5 1.02 51.0
208.5 0.95 51.0
211.5 1.02 51.0
214.5 1.08 51.0
217.5 1.21 51.0
220.5 1.35 51.0
223.5 1.41 51.0
226.5 1.48 51.0
229.5 2.43 51.0
232.5 3.45 51.0
235.5 3.05 51.0
238.5 3.31 51.0
241.5 2.76 51.0
244.5 2.4 51.0
247.5 2.72 51.0
250.5 0.85 51.0
256.5 0.62 51.0
259.5 1.02 51.0
262.5 1.18 51.0
265.5 1.87 51.0
268.5 2.43 51.0
271.5 3.84 51.0
274.5 4.63 51.0
277.5 4.69 51.0
382.5 5.81 51.0
391.5 8.4 51.0
394.5 9.68 51.0
397.5 28.94 51.0
-40.5 2.13 54.0
-34.5 2.13 54.0
196.5 1.28 54.0
199.5 1.28 54.0
202.5 1.28 54.0
205.5 1.12 54.0
208.5 1.15 54.0
211.5 1.28 54.0
214.5 1.25 54.0
217.5 1.35 54.0
220.5 1.31 54.0
223.5 1.41 54.0
226.5 1.41 54.0
229.5 1.97 54.0
232.5 2.99 54.0
235.5 3.45 54.0
238.5 3.38 54.0
241.5 3.15 54.0
244.5 3.15 54.0
247.5 3.25 54.0
250.5 1.25 54.0
253.5 0.92 54.0
259.5 1.21 54.0
262.5 1.61 54.0
268.5 1.84 54.0
271.5 3.31 54.0
274.5 4.56 54.0
277.5 4.82 54.0
286.5 3.08 54.0
289.5 2.85 54.0
292.5 3.64 54.0
295.5 3.15 54.0
388.5 5.15 54.0
391.5 7.84 54.0
394.5 8.83 54.0
397.5 9.65 54.0
-40.5 2.17 57.0
-37.5 2.1 57.0
-10.5 1.61 57.0
202.5 1.31 57.0
205.5 1.35 57.0
208.5 1.28 57.0
211.5 1.44 57.0
214.5 1.44 57.0
217.5 1.58 57.0
220.5 1.48 57.0
223.5 1.48 57.0
226.5 1.35 57.0
229.5 1.74 57.0
232.5 3.02 57.0
235.5 3.28 57.0
238.5 2.82 57.0
241.5 3.38 57.0
244.5 3.81 57.0
247.5 3.28 57.0
250.5 1.51 57.0
253.5 0.85 57.0
259.5 0.98 57.0
262.5 1.21 57.0
271.5 3.22 57.0
274.5 3.22 57.0
283.5 3.18 57.0
286.5 3.94 57.0
289.5 3.97 57.0
292.5 3.25 57.0
295.5 3.81 57.0
298.5 3.64 57.0
301.5 4.53 57.0
304.5 5.74 57.0
388.5 6.33 57.0
391.5 8.4 57.0
394.5 9.68 57.0
397.5 10.27 57.0
-397.5 8.76 60.0
-10.5 1.61 60.0
-7.5 1.61 60.0
205.5 1.41 60.0
208.5 1.41 60.0
211.5 1.44 60.0
214.5 1.51 60.0
217.5 1.61 60.0
220.5 1.51 60.0
223.5 1.48 60.0
226.5 1.28 60.0
229.5 1.44 60.0
232.5 1.67 60.0
235.5 3.18 60.0
238.5 3.38 60.0
241.5 4.2 60.0
244.5 2.82 60.0
247.5 3.28 60.0
250.5 2.49 60.0
253.5 1.05 60.0
259.5 0.92 60.0
265.5 4.23 60.0
268.5 3.58 60.0
283.5 4.04 60.0
286.5 4.17 60.0
289.5 3.74 60.0
292.5 2.72 60.0
295.5 2.89 60.0
298.5 4.2 60.0
301.5 5.45 60.0
304.5 6.69 60.0
307.5 6.69 60.0
310.5 5.05 60.0
313.5 4.3 60.0
316.5 3.45 60.0
382.5 4.43 60.0
385.5 4.95 60.0
388.5 5.41 60.0
391.5 8.63 60.0
394.5 9.48 60.0
397.5 9.09 60.0
-13.5 1.8 63.0
-10.5 1.71 63.0
-7.5 1.64 63.0
205.5 1.54 63.0
208.5 1.51 63.0
211.5 1.51 63.0
214.5 1.64 63.0
217.5 1.51 63.0
220.5 1.51 63.0
223.5 1.35 63.0
229.5 1.67 63.0
232.5 4.5 63.0
235.5 4.89 63.0
238.5 5.15 63.0
241.5 4.1 63.0
244.5 3.12 63.0
247.5 2.82 63.0
250.5 2.69 63.0
253.5 1.48 63.0
262.5 2.82 63.0
265.5 4.46 63.0
268.5 3.84 63.0
271.5 1.74 63.0
283.5 3.74 63.0
286.5 3.97 63.0
289.5 3.64 63.0
292.5 2.66 63.0
295.5 2.89 63.0
298.5 3.38 63.0
301.5 4.04 63.0
304.5 6.59 63.0
307.5 6.5 63.0
310.5 4.27 63.0
313.5 4.43 63.0
316.5 4.53 63.0
319.5 4.1 63.0
322.5 4.56 63.0
382.5 4.36 63.0
385.5 5.51 63.0
388.5 4.56 63.0
391.5 7.09 63.0
394.5 9.58 63.0
397.5 9.81 63.0
-10.5 1.94 66.0
208.5 1.58 66.0
211.5 1.58 66.0
214.5 1.54 66.0
217.5 1.51 66.0
220.5 1.54 66.0
223.5 1.31 66.0
232.5 2.49 66.0
235.5 4.46 66.0
238.5 5.35 66.0
241.5 5.28 66.0
244.5 4.3 66.0
247.5 4.1 66.0
250.5 4.27 66.0
253.5 1.54 66.0
256.5 1.38 66.0
259.5 1.54 66.0
262.5 3.18 66.0
265.5 3.58 66.0
268.5 3.67 66.0
271.5 1.8 66.0
277.5 2.53 66.0
286.5 2.3 66.0
289.5 2.66 66.0
298.5 11.52 66.0
301.5 7.38 66.0
304.5 5.51 66.0
307.5 15.55 66.0
310.5 13.03 66.0
313.5 4.3 66.0
316.5 5.15 66.0
319.5 5.25 66.0
322.5 6.2 66.0
325.5 5.61 66.0
328.5 4.82 66.0
331.5 4.04 66.0
382.5 4.46 66.0
385.5 6.86 66.0
388.5 5.25 66.0
391.5 6.53 66.0
394.5 7.25 66.0
397.5 9.22 66.0
-13.5 1.9 69.0
-10.5 1.9 69.0
-7.5 1.8 69.0
208.5 1.58 69.0
211.5 1.54 69.0
214.5 1.61 69.0
217.5 1.51 69.0
220.5 1.48 69.0
229.5 1.38 69.0
232.5 2.82 69.0
235.5 4.59 69.0
238.5 5.28 69.0
241.5 5.35 69.0
244.5 4.23 69.0
247.5 3.58 69.0
250.5 3.18 69.0
253.5 1.61 69.0
256.5 1.67 69.0
259.5 1.97 69.0
262.5 3.74 69.0
265.5 3.97 69.0
268.5 2.49 69.0
277.5 16.37 69.0
280.5 12.14 69.0
283.5 8.2 69.0
298.5 11.65 69.0
301.5 5.05 69.0
304.5 5.45 69.0
307.5 15.85 69.0
310.5 19.92 69.0
313.5 16.34 69.0
316.5 12.6 69.0
319.5 6.5 69.0
322.5 6.2 69.0
325.5 6.2 69.0
328.5 6.59 69.0
331.5 5.94 69.0
334.5 5.51 69.0
337.5 5.05 69.0
382.5 4.27 69.0
385.5 5.48 69.0
388.5 4.33 69.0
391.5 4.89 69.0
394.5 6.59 69.0
397.5 10.17 69.0
-13.5 1.97 72.0
211.5 1.67 72.0
214.5 1.54 72.0
217.5 1.58 72.0
220.5 1.44 72.0
232.5 1.8 72.0
235.5 4.1 72.0
238.5 5.38 72.0
241.5 5.45 72.0
244.5 4.43 72.0
247.5 3.74 72.0
250.5 2.85 72.0
253.5 2.1 72.0
256.5 2.23 72.0
259.5 2.92 72.0
262.5 2.62 72.0
265.5 2.79 72.0
268.5 1.38 72.0
271.5 10.6 72.0
274.5 18.08 72.0
277.5 20.74 72.0
280.5 13.39 72.0
283.5 13.32 72.0
292.5 10.79 72.0
295.5 11.09 72.0
301.5 7.38 72.0
304.5 10.79 72.0
307.5 17.39 72.0
310.5 22.54 72.0
313.5 19.0 72.0
316.5 14.73 72.0
319.5 6.07 72.0
322.5 6.37 72.0
325.5 7.19 72.0
328.5 6.23 72.0
331.5 7.38 72.0
334.5 7.22 72.0
337.5 4.92 72.0
340.5 4.5 72.0
397.5 8.73 72.0
214.5 1.64 75.0
217.5 1.51 75.0
220.5 1.51 75.0
229.5 1.41 75.0
232.5 1.8 75.0
235.5 5.09 75.0
238.5 5.35 75.0
241.5 5.54 75.0
244.5 4.53 75.0
247.5 3.87 75.0
250.5 2.23 75.0
253.5 2.07 75.0
256.5 2.3 75.0
259.5 2.43 75.0
262.5 2.26 75.0
271.5 18.9 75.0
274.5 20.57 75.0
277.5 21.03 75.0
280.5 19.36 75.0
283.5 14.11 75.0
286.5 15.45 75.0
289.5 11.29 75.0
292.5 12.11 75.0
295.5 13.62 75.0
298.5 20.47 75.0
301.5 20.7 75.0
304.5 15.75 75.0
307.5 19.42 75.0
310.5 23.0 75.0
313.5 21.29 75.0
316.5 13.39 75.0
319.5 6.4 75.0
322.5 6.76 75.0
325.5 8.37 75.0
328.5 8.33 75.0
331.5 8.3 75.0
334.5 8.33 75.0
337.5 8.37 75.0
340.5 4.99 75.0
343.5 4.33 75.0
346.5 4.33 75.0
382.5 4.5 75.0
394.5 4.36 75.0
397.5 6.27 75.0
214.5 1.61 78.0
217.5 1.51 78.0
220.5 1.44 78.0
229.5 1.48 78.0
232.5 1.8 78.0
235.5 5.35 78.0
238.5 5.81 78.0
241.5 5.74 78.0
244.5 5.18 78.0
247.5 3.54 78.0
250.5 2.17 78.0
253.5 2.13 78.0
256.5 2.53 78.0
259.5 2.13 78.0
268.5 16.96 78.0
271.5 15.75 78.0
274.5 22.21 78.0
277.5 21.95 78.0
280.5 20.74 78.0
283.5 17.95 78.0
286.5 16.44 78.0
289.5 13.65 78.0
292.5 13.71 78.0
295.5 13.32 78.0
298.5 20.31 78.0
301.5 21.16 78.0
304.5 16.77 78.0
307.5 19.78 78.0
310.5 20.77 78.0
313.5 20.24 78.0
316.5 11.29 78.0
319.5 4.72 78.0
322.5 6.92 78.0
325.5 8.17 78.0
328.5 9.42 78.0
331.5 8.27 78.0
334.5 9.25 78.0
337.5 8.1 78.0
340.5 13.35 78.0
343.5 5.32 78.0
346.5 6.43 78.0
352.5 4.33 78.0
376.5 4.5 78.0
379.5 4.99 78.0
382.5 4.92 78.0
385.5 4.86 78.0
397.5 4.23 78.0
217.5 1.61 81.0
229.5 1.28 81.0
232.5 1.8 81.0
235.5 5.28 81.0
238.5 5.91 81.0
241.5 5.48 81.0
244.5 4.76 81.0
247.5 4.33 81.0
250.5 2.2 81.0
253.5 2.07 81.0
256.5 2.03 81.0
271.5 8.1 81.0
274.5 21.95 81.0
277.5 21.26 81.0
280.5 20.31 81.0
283.5 19.92 81.0
286.5 16.21 81.0
289.5 15.16 81.0
292.5 11.94 81.0
295.5 23.36 81.0
298.5 23.23 81.0
301.5 25.66 81.0
304.5 21.98 81.0
307.5 18.11 81.0
310.5 18.08 81.0
313.5 12.83 81.0
316.5 4.5 81.0
319.5 5.87 81.0
322.5 6.5 81.0
325.5 6.4 81.0
328.5 8.83 81.0
331.5 10.43 81.0
334.5 35.33 81.0
337.5 14.9 81.0
340.5 33.33 81.0
343.5 6.53 81.0
346.5 6.92 81.0
349.5 5.25 81.0
352.5 5.48 81.0
367.5 4.23 81.0
373.5 4.82 81.0
376.5 5.51 81.0
379.5 5.38 81.0
382.5 4.79 81.0
385.5 5.25 81.0
394.5 4.3 81.0
397.5 4.33 81.0
214.5 1.61 84.0
217.5 1.58 84.0
220.5 1.48 84.0
232.5 1.74 84.0
235.5 5.35 84.0
238.5 4.53 84.0
241.5 4.59 84.0
244.5 4.95 84.0
247.5 4.92 84.0
250.5 2.59 84.0
253.5 2.13 84.0
256.5 2.2 84.0
271.5 10.07 84.0
274.5 18.27 84.0
277.5 18.24 84.0
280.5 16.24 84.0
283.5 17.16 84.0
286.5 19.72 84.0
289.5 15.06 84.0
292.5 14.11 84.0
295.5 22.54 84.0
298.5 25.23 84.0
301.5 26.08 84.0
304.5 19.26 84.0
307.5 14.63 84.0
310.5 7.42 84.0
313.5 6.17 84.0
316.5 5.97 84.0
319.5 5.81 84.0
322.5 20.6 84.0
325.5 5.74 84.0
328.5 35.99 84.0
331.5 39.63 84.0
334.5 43.93 84.0
337.5 30.18 84.0
340.5 34.48 84.0
343.5 31.27 84.0
346.5 6.89 84.0
349.5 7.09 84.0
352.5 5.84 84.0
355.5 5.32 84.0
367.5 4.79 84.0
370.5 4.72 84.0
373.5 5.25 84.0
376.5 5.84 84.0
379.5 4.99 84.0
382.5 4.99 84.0
385.5 4.36 84.0
388.5 4.33 84.0
391.5 4.33 84.0
-271.5 6.92 87.0
217.5 1.71 87.0
220.5 1.41 87.0
232.5 1.67 87.0
235.5 2.2 87.0
238.5 4.1 87.0
241.5 4.66 87.0
244.5 4.36 87.0
247.5 2.89 87.0
250.5 2.03 87.0
253.5 2.17 87.0
259.5 2.33 87.0
274.5 10.33 87.0
277.5 14.9 87.0
280.5 12.66 87.0
283.5 16.5 87.0
286.5 14.47 87.0
289.5 12.43 87.0
292.5 13.16 87.0
295.5 16.08 87.0
298.5 22.31 87.0
301.5 23.82 87.0
304.5 21.69 87.0
307.5 21.92 87.0
310.5 6.1 87.0
313.5 6.73 87.0
316.5 5.94 87.0
322.5 19.65 87.0
325.5 27.99 87.0
328.5 39.3 87.0
331.5 37.89 87.0
334.5 47.01 87.0
337.5 41.93 87.0
340.5 40.26 87.0
343.5 22.18 87.0
346.5 7.22 87.0
349.5 7.78 87.0
352.5 6.33 87.0
355.5 5.61 87.0
358.5 4.23 87.0
367.5 5.09 87.0
370.5 4.76 87.0
373.5 5.87 87.0
376.5 5.94 87.0
379.5 5.41 87.0
388.5 4.27 87.0
391.5 4.95 87.0
-364.5 9.61 90.0
-361.5 9.51 90.0
-283.5 7.48 90.0
-265.5 7.05 90.0
-232.5 6.0 90.0
214.5 1.77 90.0
217.5 1.64 90.0
220.5 1.77 90.0
232.5 1.67 90.0
235.5 1.77 90.0
238.5 2.1 90.0
241.5 2.79 90.0
244.5 3.15 90.0
256.5 2.3 90.0
262.5 2.43 90.0
286.5 15.06 90.0
289.5 11.94 90.0
292.5 10.96 90.0
295.5 12.27 90.0
298.5 19.69 90.0
301.5 19.75 90.0
304.5 23.06 90.0
307.5 22.31 90.0
310.5 18.21 90.0
313.5 5.77 90.0
316.5 6.99 90.0
319.5 27.46 90.0
322.5 27.1 90.0
325.5 40.55 90.0
328.5 43.37 90.0
331.5 45.83 90.0
334.5 44.85 90.0
337.5 45.51 90.0
340.5 41.57 90.0
343.5 38.75 90.0
346.5 18.67 90.0
349.5 8.33 90.0
352.5 7.58 90.0
355.5 6.56 90.0
370.5 4.72 90.0
373.5 5.38 90.0
376.5 5.61 90.0
382.5 4.4 90.0
385.5 4.82 90.0
388.5 4.79 90.0
391.5 4.13 90.0
-328.5 8.66 93.0
-325.5 8.53 93.0
-322.5 8.37 93.0
-292.5 7.87 93.0
-259.5 7.05 93.0
214.5 1.77 93.0
217.5 1.77 93.0
220.5 1.71 93.0
232.5 1.64 93.0
235.5 1.74 93.0
259.5 2.53 93.0
292.5 3.74 93.0
295.5 13.62 93.0
298.5 19.23 93.0
301.5 20.8 93.0
304.5 23.46 93.0
307.5 22.01 93.0
310.5 17.29 93.0
313.5 6.37 93.0
316.5 25.53 93.0
319.5 28.35 93.0
322.5 28.25 93.0
325.5 38.29 93.0
328.5 42.03 93.0
331.5 43.64 93.0
334.5 48.59 93.0
337.5 46.56 93.0
340.5 40.62 93.0
343.5 33.43 93.0
346.5 19.55 93.0
349.5 8.53 93.0
352.5 7.58 93.0
355.5 6.76 93.0
358.5 7.12 93.0
373.5 5.54 93.0
376.5 4.4 93.0
379.5 4.46 93.0
382.5 5.18 93.0
385.5 4.4 93.0
388.5 4.92 93.0
391.5 4.79 93.0
394.5 4.63 93.0
-394.5 10.96 96.0
-337.5 9.25 96.0
-316.5 8.66 96.0
-313.5 8.53 96.0
-310.5 8.43 96.0
-283.5 7.97 96.0
-280.5 7.97 96.0
-262.5 7.45 96.0
-259.5 7.38 96.0
214.5 1.9 96.0
217.5 1.87 96.0
220.5 1.74 96.0
232.5 1.77 96.0
235.5 1.8 96.0
295.5 13.91 96.0
298.5 19.32 96.0
301.5 20.83 96.0
304.5 15.81 96.0
307.5 18.6 96.0
310.5 11.58 96.0
313.5 6.66 96.0
316.5 6.46 96.0
319.5 24.11 96.0
322.5 30.48 96.0
325.5 31.53 96.0
328.5 44.46 96.0
331.5 45.37 96.0
334.5 47.05 96.0
337.5 47.24 96.0
340.5 43.31 96.0
343.5 41.14 96.0
346.5 30.15 96.0
349.5 16.93 96.0
352.5 20.28 96.0
355.5 6.89 96.0
358.5 6.43 96.0
361.5 5.15 96.0
376.5 4.53 96.0
379.5 4.66 96.0
382.5 4.72 96.0
385.5 4.63 96.0
388.5 4.86 96.0
391.5 4.56 96.0
394.5 4.46 96.0
-343.5 9.65 99.0
-328.5 9.32 99.0
-325.5 9.25 99.0
-322.5 9.12 99.0
-319.5 9.02 99.0
-292.5 8.43 99.0
-283.5 8.4 99.0
-280.5 8.17 99.0
-277.5 8.1 99.0
-271.5 8.04 99.0
-262.5 7.61 99.0
-259.5 7.58 99.0
214.5 1.87 99.0
217.5 1.87 99.0
220.5 1.9 99.0
229.5 1.58 99.0
232.5 1.87 99.0
235.5 1.9 99.0
244.5 10.86 99.0
301.5 14.7 99.0
304.5 14.5 99.0
307.5 14.37 99.0
310.5 5.97 99.0
313.5 6.66 99.0
316.5 6.0 99.0
319.5 6.14 99.0
322.5 21.49 99.0
325.5 32.55 99.0
328.5 41.14 99.0
331.5 44.78 99.0
334.5 46.79 99.0
337.5 45.74 99.0
340.5 40.16 99.0
343.5 39.93 99.0
346.5 17.75 99.0
349.5 20.9 99.0
352.5 21.72 99.0
355.5 21.29 99.0
358.5 15.16 99.0
361.5 7.02 99.0
364.5 5.28 99.0
379.5 4.3 99.0
394.5 5.05 99.0
397.5 4.72 99.0
-373.5 10.86 102.0
-370.5 10.83 102.0
-367.5 10.76 102.0
-364.5 10.73 102.0
-361.5 10.6 102.0
-358.5 10.63 102.0
-349.5 10.24 102.0
-346.5 10.11 102.0
-322.5 9.45 102.0
-316.5 9.29 102.0
-313.5 9.29 102.0
-283.5 8.69 102.0
214.5 1.97 102.0
217.5 1.9 102.0
220.5 1.9 102.0
229.5 14.9 102.0
232.5 15.19 102.0
235.5 14.6 102.0
238.5 23.0 102.0
241.5 22.28 102.0
244.5 13.52 102.0
283.5 3.35 102.0
286.5 4.63 102.0
289.5 5.12 102.0
310.5 4.82 102.0
313.5 5.68 102.0
316.5 6.53 102.0
319.5 6.37 102.0
322.5 32.78 102.0
325.5 30.32 102.0
328.5 36.71 102.0
331.5 37.37 102.0
334.5 41.04 102.0
337.5 42.22 102.0
340.5 30.81 102.0
343.5 21.52 102.0
346.5 21.75 102.0
349.5 22.31 102.0
352.5 22.87 102.0
355.5 22.34 102.0
358.5 15.68 102.0
361.5 7.48 102.0
364.5 7.32 102.0
367.5 4.23 102.0
379.5 4.23 102.0
394.5 4.86 102.0
397.5 5.15 102.0
-370.5 11.22 105.0
-364.5 11.12 105.0
-361.5 10.96 105.0
-358.5 10.96 105.0
-349.5 10.63 105.0
-346.5 10.53 105.0
-343.5 10.43 105.0
-340.5 10.27 105.0
-337.5 10.2 105.0
-334.5 10.07 105.0
-322.5 9.78 105.0
-316.5 9.71 105.0
-313.5 9.58 105.0
-283.5 8.83 105.0
-262.5 8.07 105.0
217.5 2.0 105.0
220.5 1.97 105.0
223.5 1.77 105.0
226.5 13.42 105.0
229.5 20.87 105.0
232.5 24.34 105.0
235.5 26.74 105.0
238.5 28.12 105.0
241.5 23.56 105.0
244.5 14.63 105.0
277.5 6.3 105.0
280.5 6.5 105.0
283.5 7.15 105.0
286.5 7.15 105.0
289.5 8.04 105.0
292.5 5.61 105.0
313.5 22.15 105.0
316.5 36.35 105.0
319.5 37.4 105.0
322.5 34.58 105.0
325.5 38.55 105.0
328.5 37.76 105.0
331.5 43.11 105.0
334.5 41.11 105.0
337.5 43.47 105.0
340.5 21.42 105.0
343.5 41.34 105.0
346.5 38.12 105.0
349.5 29.2 105.0
352.5 23.26 105.0
355.5 23.33 105.0
358.5 16.44 105.0
361.5 15.35 105.0
364.5 7.32 105.0
367.5 4.17 105.0
385.5 4.46 105.0
388.5 4.5 105.0
391.5 4.95 105.0
394.5 4.86 105.0
-349.5 11.12 108.0
-346.5 10.86 108.0
-343.5 10.73 108.0
-340.5 10.79 108.0
-337.5 10.66 108.0
-334.5 10.56 108.0
-328.5 10.53 108.0
-325.5 10.4 108.0
-322.5 10.24 108.0
-319.5 10.14 108.0
-316.5 9.91 108.0
223.5 22.05 108.0
226.5 23.13 108.0
229.5 24.08 108.0
232.5 28.15 108.0
235.5 29.86 108.0
238.5 28.84 108.0
241.5 23.29 108.0
244.5 20.64 108.0
277.5 7.87 108.0
280.5 7.68 108.0
283.5 8.4 108.0
286.5 7.97 108.0
289.5 8.2 108.0
292.5 7.48 108.0
310.5 18.08 108.0
313.5 30.91 108.0
316.5 34.06 108.0
319.5 37.34 108.0
322.5 37.3 108.0
325.5 40.72 108.0
328.5 42.78 108.0
331.5 43.9 108.0
334.5 45.6 108.0
337.5 46.13 108.0
340.5 44.52 108.0
343.5 42.19 108.0
346.5 42.85 108.0
349.5 44.65 108.0
352.5 44.32 108.0
355.5 22.83 108.0
358.5 23.33 108.0
361.5 16.21 108.0
364.5 6.86 108.0
367.5 5.38 108.0
370.5 4.07 108.0
388.5 4.69 108.0
391.5 4.43 108.0
394.5 4.72 108.0
397.5 4.86 108.0
-394.5 14.53 111.0
-346.5 11.29 111.0
-343.5 11.25 111.0
-337.5 11.12 111.0
-334.5 10.99 111.0
-331.5 10.93 111.0
-328.5 11.02 111.0
-325.5 10.89 111.0
-322.5 10.89 111.0
-319.5 10.53 111.0
-316.5 10.53 111.0
-313.5 10.4 111.0
-310.5 10.2 111.0
-307.5 10.04 111.0
-304.5 9.97 111.0
-286.5 9.48 111.0
223.5 23.43 111.0
226.5 25.66 111.0
229.5 27.79 111.0
232.5 29.5 111.0
235.5 29.46 111.0
238.5 29.59 111.0
241.5 26.67 111.0
244.5 22.9 111.0
277.5 7.22 111.0
280.5 7.74 111.0
283.5 8.01 111.0
286.5 8.43 111.0
289.5 9.32 111.0
292.5 7.09 111.0
310.5 21.03 111.0
313.5 30.54 111.0
316.5 31.96 111.0
319.5 37.76 111.0
322.5 38.55 111.0
325.5 40.49 111.0
328.5 41.01 111.0
331.5 42.82 111.0
334.5 45.67 111.0
337.5 46.16 111.0
340.5 44.32 111.0
343.5 42.13 111.0
346.5 44.16 111.0
349.5 44.55 111.0
352.5 26.61 111.0
355.5 23.16 111.0
358.5 21.65 111.0
361.5 16.27 111.0
364.5 6.63 111.0
367.5 5.58 111.0
370.5 4.13 111.0
373.5 4.5 111.0
388.5 4.95 111.0
391.5 4.92 111.0
394.5 4.95 111.0
397.5 4.59 111.0
-376.5 14.53 114.0
-343.5 11.71 114.0
